#!ascii version written be Caret
6056 12108
3780 3899 3641 0
3430 3642 3779 0
3843 3779 3642 0
3574 3641 3842 0
3719 3640 3473 0
3900 3640 3719 0
3580 3901 3781 0
3645 3902 3844 0
3902 3645 3525 0
3783 3903 3646 0
3784 3904 3789 0
3784 3721 3904 0
3785 3905 3847 0
3906 3905 3785 0
3907 3583 3788 0
3434 3906 3785 0
3849 3906 3434 0
3585 3850 3723 0
3847 3905 3908 0
3909 3906 3723 0
3906 3849 3723 0
3907 3528 3583 0
3910 3723 3850 0
3850 3730 3910 0
3728 3789 3911 0
3726 3729 3912 0
3913 3790 3914 0
3914 3790 3734 0
3852 3914 3734 0
3729 3854 3912 0
3728 3853 3729 0
3793 3851 3652 0
3794 3653 3659 0
3653 3794 3915 0
3916 3740 3593 0
3593 3741 3916 0
3801 3800 3917 0
3600 3801 3918 0
3600 3918 3862 0
3861 3864 3799 0
3743 3802 3608 0
3671 3919 3666 0
3803 3802 3920 0
3803 3920 3921 0
3921 3674 3803 0
3492 3673 3746 0
3674 3868 3548 0
3868 3674 3921 0
3922 3670 3669 0
3669 3744 3923 0
3669 3923 3922 0
3748 3868 3924 0
3677 3747 3925 0
3926 3871 3677 0
3924 3806 3748 0
3870 3927 3867 0
3870 3874 3927 0
3814 3678 3928 0
3679 3805 3877 0
3810 3812 3872 0
3678 3751 3928 0
3875 3814 3928 0
3878 3817 3682 0
3884 3881 3620 0
3620 3621 3884 0
3881 3884 3929 0
3883 3754 3753 0
3817 3930 3498 0
3818 3498 3930 0
3625 3882 3622 0
3886 3757 3758 0
3886 3756 3757 0
3756 3760 3889 0
3889 3755 3756 0
3889 3822 3931 0
3931 3755 3889 0
3820 3687 3885 0
3756 3694 3760 0
3687 3888 3886 0
3756 3888 3694 0
3623 3887 3684 0
3890 3892 3932 0
3933 3759 3762 0
3934 3626 3890 0
3697 3825 3935 0
3936 3935 3825 0
3937 3761 3699 0
3938 3825 3629 0
3629 3630 3938 0
3629 3700 3630 0
3827 3767 3701 0
3939 3830 3705 0
3464 3768 3940 0
3940 3832 3464 0
3941 3942 3709 0
3709 3708 3941 0
3893 3710 3832 0
3635 3833 3943 0
3566 3836 3835 0
3712 3514 3424 0
3712 3424 3773 0
3944 3896 3774 0
3945 3944 3774 0
3839 3946 3715 0
3717 3715 3946 0
3840 3572 3775 0
3839 3716 3947 0
3717 3948 3841 0
3947 3716 3638 0
3897 3947 3638 0
3521 3841 3776 0
3898 3718 3778 0
3718 3898 3783 0
3782 3576 3720 0
3721 3782 3904 0
3949 3904 3782 0
3646 3903 3845 0
3723 3849 3581 0
3912 3786 3726 0
3853 3728 3911 0
3730 3950 3910 0
3730 3792 3950 0
3790 3731 3732 0
3951 3852 3851 0
3853 3952 3854 0
3590 3731 3856 0
3793 3653 3915 0
3736 3655 3953 0
3661 3858 3855 0
3954 3736 3953 0
3657 3857 3739 0
3954 3738 3736 0
3535 3955 3795 0
3535 3956 3955 0
3956 3535 3957 0
3535 3534 3797 0
3797 3957 3535 0
3667 3666 3919 0
3860 3863 3862 0
3958 3862 3918 0
3670 3959 3671 0
3959 3960 3671 0
3671 3960 3919 0
3743 3961 3802 0
3866 3676 3962 0
3866 3962 3743 0
3963 3923 3744 0
3964 3676 3675 0
3965 3806 3924 0
3867 3927 3750 0
3750 3964 3675 0
3965 3966 3806 0
3747 3746 3925 0
3751 3871 3967 0
3968 3969 3872 0
3969 3869 3872 0
3554 3876 3805 0
3970 3968 3812 0
3968 3872 3812 0
3967 3928 3751 0
3812 3815 3971 0
3972 3876 3875 0
3973 3974 3929 0
3929 3884 3973 0
3884 3755 3973 0
3930 3975 3818 0
3975 3930 3976 0
3885 3883 3820 0
3886 3885 3687 0
3882 3625 3821 0
3756 3886 3888 0
3887 3819 3977 0
3823 3978 3822 0
3887 3891 3684 0
3891 3887 3979 0
3761 3980 3933 0
3933 3981 3759 0
3759 3981 3823 0
3762 3761 3933 0
3763 3824 3982 0
3763 3982 3764 0
3824 3935 3983 0
3824 3697 3935 0
3890 3932 3934 0
3626 3934 3766 0
3932 3766 3934 0
3766 3932 3984 0
3699 3765 3937 0
3630 3767 3938 0
3826 3564 3828 0
3828 3830 3985 0
3828 3702 3830 0
3827 3826 3986 0
3939 3705 3831 0
3631 3294 3987 0
3832 3988 3893 0
3893 3941 3707 0
3708 3707 3941 0
3941 3893 3989 0
3943 3768 3635 0
3637 3771 3894 0
3771 3769 3990 0
3990 3894 3771 0
3774 3713 3991 0
3774 3991 3945 0
3772 3895 3837 0
3894 3991 3713 0
3895 3838 3992 0
3896 3993 3775 0
3994 3717 3946 0
3994 3948 3717 0
3775 3993 3840 0
3995 3838 3776 0
3779 3843 3996 0
3842 3641 3899 0
3997 3843 3842 0
3842 3899 3997 0
3998 3782 3781 0
3999 3782 3998 0
3901 3580 3846 0
3901 3846 4000 0
4000 3781 3901 0
3525 3848 3902 0
3846 3845 4000 0
4001 4000 3845 0
3845 4002 4001 0
3903 4002 3845 0
3911 3789 4003 0
3788 3786 3907 0
3786 3912 4004 0
3909 3723 3910 0
4005 3914 3852 0
3852 3951 4005 0
3905 3906 3909 0
4006 3790 3913 0
3913 4007 4006 0
3913 4008 4007 0
3913 3914 4008 0
3853 3911 4009 0
3853 4009 3952 0
3855 3950 3792 0
4010 3910 3950 0
3950 3855 4010 0
4011 3731 3790 0
3790 4006 4011 0
3851 3793 4012 0
4012 3951 3851 0
4013 3854 4014 0
3854 3952 4014 0
3953 3655 3733 0
3733 3791 3953 0
3856 3731 3857 0
4015 4016 4017 0
3956 4017 4016 0
4017 3956 4018 0
4019 4018 4020 0
4020 3796 3738 0
3954 4020 3738 0
3658 4021 3794 0
3957 4018 3956 0
3916 4022 3740 0
3916 3663 4022 0
3916 3741 3663 0
3796 4023 3595 0
4020 4023 3796 0
3957 3595 4023 0
3859 4022 3663 0
3798 3664 3863 0
3863 3860 3798 0
3919 3800 3667 0
3742 3860 3861 0
3860 3862 3958 0
3860 3958 3861 0
3800 3919 3960 0
3922 3959 3670 0
3865 3746 3673 0
3868 3921 3924 0
3804 3963 3744 0
4024 3965 3962 0
3924 3962 3965 0
3966 3965 4024 0
3962 3676 4024 0
3677 3925 4025 0
4025 3926 3677 0
3966 3811 3806 0
3968 4026 3969 0
4027 3927 3874 0
4028 3877 3876 0
3876 3972 4028 0
4027 3873 3880 0
3881 4027 3880 0
4029 4030 3815 0
3874 3873 4027 0
3970 3812 3971 0
4030 3971 3815 0
3930 3817 3878 0
3883 3882 4031 0
3974 4032 4033 0
3974 3973 4032 0
3973 3755 4032 0
4034 4032 3755 0
4031 3820 3883 0
4031 3821 3820 0
3822 4035 3931 0
3822 3978 4035 0
4036 3982 4037 0
3982 3824 4037 0
4038 4039 3980 0
3980 3761 3937 0
3891 3979 3892 0
3983 4037 3824 0
4038 3765 3764 0
4040 3932 3892 0
3984 3932 4040 0
3825 3938 3936 0
3828 3985 3826 0
3986 4041 3827 0
3767 3827 4041 0
3985 3830 3939 0
4042 4043 3704 0
4043 4042 4044 0
3704 3709 4042 0
3831 3704 4045 0
3709 3942 4042 0
3941 4046 3942 0
3988 3989 3893 0
4047 3943 3833 0
4048 3833 3835 0
3833 4048 4047 0
3835 4049 4048 0
4048 4050 4051 0
4049 3835 3836 0
4050 4048 4049 0
4051 4050 3837 0
3837 3895 4051 0
3894 3990 4052 0
3712 4053 3836 0
4053 3712 3773 0
3837 4053 3773 0
3992 4054 3895 0
3944 3993 3896 0
4055 3946 3839 0
3947 4056 4057 0
3947 3897 4056 0
3776 3841 3995 0
3841 3948 3995 0
3777 4056 3897 0
3898 3840 4058 0
3777 3779 3996 0
3780 3640 4059 0
3780 4059 3899 0
3996 3997 4060 0
3996 3843 3997 0
3902 4061 3844 0
3781 3782 3720 0
3844 4061 3719 0
3902 3848 4062 0
3949 3782 4063 0
3998 3781 4000 0
3847 4062 3848 0
4000 3999 3998 0
3782 3999 4063 0
3949 3789 3904 0
3949 4003 3789 0
4064 4065 4066 0
4008 3914 4066 0
4066 3914 4064 0
3791 3528 3907 0
4010 3909 3910 0
3854 4013 3912 0
4067 3912 4013 0
4068 4014 3952 0
4012 3793 4069 0
3739 3858 3662 0
4015 4017 4018 0
4019 4015 4018 0
3855 3858 4070 0
3955 3859 3795 0
3957 3797 3595 0
3960 3917 3800 0
3960 3959 3917 0
3918 3801 4071 0
3917 4071 3801 0
3864 3861 3865 0
3962 3961 3743 0
3924 3921 3920 0
3924 3920 4072 0
3746 4073 3925 0
3746 3865 4073 0
4024 3676 3964 0
3962 3924 4072 0
4074 3811 3966 0
4075 3804 3869 0
3869 3969 4075 0
4076 3750 3927 0
4027 4076 3927 0
4027 4077 4076 0
3968 4078 4026 0
3968 3970 4078 0
3815 3811 4029 0
3805 3876 3877 0
3972 4079 4028 0
3875 4079 3972 0
4080 3970 3971 0
3974 4081 4082 0
3974 4083 4081 0
3974 3881 3929 0
3878 3879 4084 0
4084 3930 3878 0
3930 4084 3976 0
3882 3821 4031 0
4085 3975 3976 0
3975 4085 4086 0
3818 4087 3819 0
3978 4088 4089 0
4090 4089 4088 0
3978 3823 4088 0
4037 3983 4091 0
4037 4091 4036 0
3982 4036 4092 0
4038 3982 4039 0
3764 3982 4038 0
3980 4093 3933 0
3823 3981 4088 0
3980 3765 4038 0
3937 3765 3980 0
4094 3892 3979 0
3829 3766 3984 0
4095 3984 4040 0
4096 4095 4040 0
3984 4095 3829 0
3826 3985 4097 0
3767 4098 3938 0
4099 4100 4101 0
3767 4102 4099 0
4099 4098 3767 0
4103 4104 4100 0
4105 3938 4098 0
4100 4099 4103 0
4102 3767 4041 0
4102 4103 4099 0
4106 4043 4044 0
4044 4042 3942 0
4107 3704 4043 0
4045 3939 3831 0
3939 4045 4108 0
3704 4107 4045 0
4109 3634 3631 0
3634 4109 4110 0
4111 3940 4112 0
4111 3988 3940 0
3634 4113 3466 0
4110 4113 3634 0
3940 3988 3832 0
3466 4113 3769 0
4112 3940 3768 0
3768 3943 4112 0
3943 4047 4112 0
4047 4048 4051 0
4049 4053 3837 0
4050 4049 3837 0
4049 3836 4053 0
4051 3895 4054 0
3838 3995 3992 0
4114 3994 3946 0
4057 4055 3947 0
4055 3839 3947 0
3948 3994 4115 0
3840 3993 4058 0
4058 3993 4116 0
3993 4117 4116 0
3777 3996 4056 0
4118 4056 3996 0
4059 3640 3900 0
3783 3898 4058 0
3900 3719 4119 0
4061 4119 3719 0
3783 4058 4120 0
4119 4121 3900 0
3999 4122 4063 0
4065 4064 4123 0
3903 4124 4002 0
3903 4125 4124 0
3999 4000 4001 0
4001 4122 3999 0
4126 4062 3847 0
3914 4005 4064 0
4005 4127 4128 0
4128 4064 4005 0
4005 3951 4127 0
3911 4003 4129 0
4004 3907 3786 0
4009 3911 4129 0
4004 3912 4130 0
4130 4131 4004 0
4131 3907 4004 0
3952 4009 4132 0
4133 3731 4011 0
4133 4006 4134 0
4133 4011 4006 0
3952 4132 4068 0
4013 4135 4067 0
4012 4069 4136 0
4013 4014 4135 0
4135 4014 4137 0
3915 4069 3793 0
3956 4016 3955 0
4015 4019 4138 0
4139 3955 4016 0
4018 3957 4020 0
4021 3658 3740 0
3957 4023 4020 0
3740 3794 4021 0
3802 3961 3920 0
4140 3865 3861 0
3922 3923 4141 0
3865 4142 4073 0
3750 4143 3964 0
3964 4143 4024 0
4075 3963 3804 0
4143 4144 4024 0
4144 3966 4024 0
4143 4076 4077 0
4145 4146 3967 0
4077 4027 4147 0
4148 4029 3811 0
4027 4149 4147 0
4027 3881 4082 0
4027 4082 4149 0
3879 3877 4150 0
4082 3881 3974 0
4151 4033 4032 0
4034 3931 4035 0
3975 4087 3818 0
3819 4087 3977 0
4087 4086 3977 0
4087 3975 4086 0
3978 4089 4035 0
4089 4152 4035 0
4089 4153 4154 0
4154 4152 4089 0
4039 4092 4155 0
4039 3982 4092 0
3980 4039 4155 0
3977 3979 3887 0
4093 3980 4155 0
3981 3933 4156 0
4157 3979 3977 0
4157 4094 3979 0
4158 3983 3935 0
3892 4094 4040 0
4105 4098 4101 0
4098 4099 4101 0
3987 3829 4095 0
4159 3986 3826 0
4160 3987 4095 0
4095 4096 4160 0
4159 4041 3986 0
4100 4104 4161 0
3829 3987 3294 0
4162 3987 4160 0
3987 4162 3631 0
4163 4103 4102 0
4162 4109 3631 0
4164 4109 4162 0
4109 4164 4165 0
4166 4044 3942 0
4167 4110 4109 0
4168 4111 4112 0
4167 4113 4110 0
4113 4167 4169 0
4169 3769 4113 0
4169 3990 3769 0
3990 4169 4170 0
4170 4052 3990 0
4171 4172 4173 0
4174 4171 4173 0
4051 4054 4175 0
4176 4174 4177 0
4177 4174 4178 0
4179 4178 4174 0
4174 4173 4179 0
4180 4177 4178 0
4178 4179 4180 0
4177 4180 4181 0
4182 4118 3996 0
4183 3899 4059 0
4184 4185 4186 0
4187 4188 4185 0
4185 4184 4187 0
3902 4062 4126 0
4126 4061 3902 0
4189 4065 4123 0
4190 4191 4122 0
4192 4008 4066 0
4192 4007 4008 0
4193 4009 4129 0
4131 3791 3907 0
4194 3905 3909 0
4195 4127 3951 0
4194 4196 3905 0
4194 3909 4010 0
3791 4131 4197 0
3951 4012 4198 0
4199 3953 3791 0
4200 4067 4135 0
4199 3791 4197 0
3731 4133 3857 0
4016 4015 4201 0
3915 3794 4202 0
4138 4019 4020 0
3857 3858 3739 0
4203 4138 4020 0
3917 4204 4071 0
3918 4071 4205 0
4205 3958 3918 0
4206 4207 3861 0
3861 3958 4206 0
3958 4205 4206 0
3922 4141 3959 0
4140 4142 3865 0
4072 3961 3962 0
4208 4141 3923 0
3923 3963 4208 0
3963 4209 4208 0
3963 4075 4209 0
4209 4210 4208 0
4025 3925 4073 0
3750 4076 4143 0
4211 4075 4212 0
4075 4211 4209 0
4075 3969 4212 0
3969 4026 4211 0
4211 4212 3969 0
4213 4214 3966 0
4214 4074 3966 0
4143 4077 4215 0
4074 4214 4148 0
4148 3811 4074 0
4216 4217 3970 0
4216 4218 4217 0
4145 4219 4146 0
4220 3967 4146 0
4216 4080 4221 0
4216 3970 4080 0
3928 3967 4220 0
4220 4079 3928 0
4079 3875 3928 0
4030 4029 4222 0
4148 4222 4029 0
4028 4150 3877 0
4218 4216 4223 0
4150 4028 4079 0
3974 4224 4083 0
4030 4225 3971 0
3879 4150 4226 0
4227 4228 4224 0
4228 4083 4224 0
4033 4224 3974 0
4224 4033 4151 0
4154 4151 4032 0
4032 4034 4154 0
3755 3931 4034 0
4229 4154 4153 0
4089 4090 4153 0
4154 4034 4152 0
4034 4035 4152 0
4230 4153 4090 0
4155 4092 4231 0
4091 4232 4036 0
3933 4093 4156 0
4233 4093 4234 0
4093 4155 4234 0
3983 4158 4091 0
4094 4157 4235 0
4236 4158 3935 0
3936 4236 3935 0
3936 4105 4236 0
3936 3938 4105 0
4100 4161 4237 0
4237 4101 4100 0
4159 3826 4238 0
4041 4159 4239 0
4103 4240 4241 0
4164 4162 4160 0
4108 3985 3939 0
4165 4167 4109 0
4106 4107 4043 0
4106 4044 4166 0
3942 4242 4166 0
4107 4243 4045 0
4243 4108 4045 0
4046 3941 4244 0
3989 3988 4245 0
3988 4246 4245 0
3941 3989 4244 0
4168 4112 4047 0
4247 4168 4047 0
4172 4248 4249 0
4248 4172 4171 0
4250 4173 4172 0
4173 4250 4251 0
3894 4252 3991 0
3945 3991 4252 0
4252 3894 4253 0
3894 4052 4253 0
3945 4252 4254 0
4177 4255 4176 0
4254 4256 3945 0
3945 4256 3944 0
4257 4258 4259 0
4260 4258 4257 0
4258 4260 4261 0
4055 4114 3946 0
4262 4263 4257 0
4263 4260 4257 0
4264 4260 4263 0
4260 4264 4261 0
4265 3992 3995 0
4114 4115 3994 0
3993 3944 4117 0
4265 3995 3948 0
3948 4115 4265 0
4186 4185 4266 0
4267 3997 3899 0
4121 4059 3900 0
4268 4187 4184 0
4187 4268 4188 0
4125 3903 3783 0
4120 4125 3783 0
4189 4269 4065 0
4065 4269 4066 0
4270 3949 4063 0
4271 4002 4124 0
4272 4271 4124 0
4273 4272 4124 0
4124 4125 4273 0
4121 4119 4061 0
4274 4121 4061 0
3847 3908 4126 0
4270 4003 3949 0
4002 4122 4001 0
4122 4002 4190 0
4002 4271 4190 0
3905 4196 4275 0
4275 3908 3905 0
4276 4132 4009 0
4131 4130 4197 0
4276 4009 4193 0
4010 4277 4194 0
3951 4198 4195 0
4136 4198 4012 0
4010 3855 4278 0
4010 4278 4277 0
4133 4134 4279 0
3953 4199 3954 0
4280 3954 4199 0
4281 4280 4199 0
4069 3915 4202 0
4282 4070 3858 0
4201 4139 4016 0
3954 4280 4020 0
4015 4138 4203 0
4203 4283 4015 0
4015 4283 4201 0
4284 3858 3857 0
4139 4285 4286 0
3955 4286 3859 0
4202 3794 3740 0
4287 3740 4022 0
3859 4286 4022 0
3917 3959 4204 0
3959 4141 4204 0
4207 4140 3861 0
4288 4141 4208 0
3961 4072 3920 0
4073 4142 4289 0
4290 4025 4073 0
4290 3926 4025 0
3966 4144 4213 0
3967 3871 3926 0
3967 3926 4145 0
4290 4145 3926 0
4145 4290 4291 0
4145 4291 4219 0
4077 4147 4215 0
4082 4081 4149 0
4217 4218 4292 0
4222 4148 4293 0
4294 4150 4079 0
4225 4030 4222 0
4295 4079 4296 0
4079 4220 4296 0
4226 4084 3879 0
4224 4151 4297 0
4297 4227 4224 0
4084 4226 4298 0
3976 4084 4085 0
4084 4298 4085 0
4299 4086 4085 0
4230 4229 4153 0
4300 3977 4086 0
4301 4092 4036 0
4086 4299 4300 0
4302 4300 4299 0
4158 4236 4303 0
4233 4156 4093 0
4156 4304 3981 0
4040 4094 4305 0
4235 4305 4094 0
4306 4105 4101 0
4237 4306 4101 0
3826 4097 4238 0
4307 4097 3985 0
4308 4104 4309 0
4239 4102 4041 0
4102 4239 4163 0
4104 4103 4309 0
4106 4166 4310 0
4310 4107 4106 0
3942 4311 4242 0
4312 4311 3942 0
3942 4046 4312 0
4313 4046 4244 0
4314 4172 4249 0
4314 4250 4172 0
4249 4315 4314 0
4175 4047 4051 0
4047 4175 4247 0
4252 4253 4316 0
4179 4173 4251 0
4179 4251 4317 0
4180 4179 4317 0
4054 4317 4251 0
4255 4177 4181 0
4318 4317 4319 0
4318 4180 4317 0
4320 4258 4256 0
4256 4254 4320 0
3992 4317 4054 0
4321 4181 4180 0
4319 4321 4180 0
4180 4318 4319 0
4320 4259 4258 0
4256 4261 3944 0
4258 4261 4256 0
4117 3944 4261 0
4261 4264 4117 0
4264 4263 4322 0
4264 4323 4117 0
4056 4324 4325 0
4056 4325 4057 0
4264 4322 4323 0
4118 4324 4056 0
4186 4266 4326 0
4327 4120 4058 0
4116 4327 4058 0
4186 4326 4328 0
3996 4060 4182 0
4328 4184 4186 0
3997 4267 4329 0
4267 3899 4183 0
4183 4329 4267 0
4121 4183 4059 0
4330 4331 4328 0
4328 4331 4184 0
4183 4332 4329 0
4183 4121 4332 0
4122 4270 4063 0
4333 4189 4123 0
4064 4333 4123 0
4122 4191 4334 0
4275 4126 3908 0
4335 4196 4336 0
4337 4190 4271 0
4335 4336 4338 0
4194 4336 4196 0
4007 4134 4006 0
4134 4007 4339 0
4127 4195 4340 0
3912 4067 4130 0
4200 4341 4067 0
4067 4341 4130 0
4068 4132 4276 0
4135 4342 4200 0
4281 4199 4197 0
4343 4281 4197 0
4344 4137 4014 0
4135 4137 4342 0
3855 4070 4278 0
4139 4201 4285 0
4282 3858 4284 0
4280 4281 4345 0
4345 4020 4280 0
4203 4020 4345 0
4202 3740 4287 0
4022 4286 4287 0
4346 4071 4204 0
4289 4142 4140 0
4347 4290 4073 0
4348 4026 4078 0
4215 4147 4349 0
4217 4350 3970 0
4078 4350 4348 0
4078 3970 4350 0
4214 4293 4148 0
4221 4223 4216 0
4225 4080 3971 0
4351 4080 4225 0
4295 4294 4079 0
4352 4299 4085 0
4229 4151 4154 0
4151 4229 4297 0
4232 4301 4036 0
4301 4353 4092 0
4301 4232 4353 0
4354 3977 4300 0
4300 4302 4354 0
4304 4088 3981 0
4158 4303 4091 0
4232 4091 4303 0
4232 4303 4355 0
4236 4356 4303 0
4303 4356 4357 0
4305 4358 4096 0
4096 4040 4305 0
4359 4358 4305 0
4161 4308 4360 0
4161 4104 4308 0
4160 4096 4358 0
4308 4309 4361 0
4160 4358 4362 0
4362 4363 4160 0
4160 4363 4164 0
4309 4103 4241 0
4364 4307 3985 0
3985 4108 4364 0
4165 4164 4363 0
4243 4364 4108 0
4364 4243 4365 0
4243 4310 4365 0
4243 4107 4310 0
4366 4166 4242 0
4167 4363 4367 0
4165 4363 4167 0
4167 4367 4169 0
4368 4245 4246 0
4246 4111 4369 0
4311 4312 4370 0
4371 4372 4367 0
4372 4169 4367 0
4373 4371 4367 0
4245 4244 3989 0
4369 4111 4168 0
3988 4111 4246 0
4372 4170 4169 0
4374 4375 4376 0
4376 4315 4374 0
4374 4315 4249 0
4377 4369 4247 0
4248 4374 4249 0
4374 4248 4375 0
4372 4253 4170 0
4253 4378 4379 0
4253 4372 4378 0
4170 4253 4052 0
4380 4248 4171 0
4171 4174 4380 0
4380 4176 4381 0
4380 4174 4176 0
4382 4254 4252 0
4383 4320 4254 0
4384 4383 4254 0
4319 4317 4385 0
4385 4317 3992 0
4386 4255 4181 0
4265 4385 3992 0
4114 4055 4057 0
4115 4114 4319 0
4325 4324 4387 0
4388 4323 4322 0
4266 4389 4326 0
4390 4389 4266 0
4266 4391 4390 0
4388 4322 4392 0
4391 4266 4185 0
4393 4118 4182 0
4394 4393 4182 0
4395 4391 4185 0
4185 4188 4396 0
4268 4397 4188 0
4397 4268 4398 0
3997 4329 4399 0
4121 4400 4332 0
4189 4333 4401 0
4126 4274 4061 0
4402 4003 4270 0
4334 4270 4122 0
4403 4192 4066 0
4269 4403 4066 0
4403 4269 4404 0
4128 4333 4064 0
4335 4405 4196 0
4406 4196 4405 0
4192 4403 4007 0
4407 4339 4403 0
4339 4007 4403 0
4126 4275 4408 0
4128 4127 4409 0
4190 4337 4191 0
4337 4410 4191 0
4194 4338 4336 0
4338 4194 4277 0
4195 4198 4411 0
4412 4277 4278 0
4413 4341 4342 0
4341 4200 4342 0
3857 4133 4279 0
4284 3857 4279 0
4069 4202 4414 0
4283 4285 4201 0
4286 3955 4139 0
4346 4415 4071 0
4205 4071 4415 0
4415 4416 4205 0
4417 4141 4288 0
4204 4141 4346 0
4418 4416 4415 0
4346 4419 4418 0
4418 4415 4346 0
4420 4208 4210 0
4421 4289 4140 0
4419 4422 4423 0
4143 4215 4349 0
4026 4348 4211 0
4217 4424 4425 0
4426 4147 4149 0
4427 4219 4291 0
4146 4296 4220 0
4428 4429 4430 0
4081 4429 4428 0
4292 4218 4223 0
4429 4081 4083 0
4083 4228 4429 0
4292 4431 4432 0
4432 4433 4292 0
4433 4217 4292 0
4150 4294 4226 0
4223 4434 4435 0
4295 4436 4294 0
4085 4298 4437 0
4085 4437 4352 0
4352 4437 4438 0
4438 4299 4352 0
4231 4092 4353 0
4234 4155 4231 0
4090 4088 4439 0
4302 4440 4441 0
4302 4442 4440 0
4441 4354 4302 0
4355 4303 4443 0
4304 4444 4088 0
3977 4354 4157 0
4303 4357 4443 0
4356 4236 4105 0
4306 4357 4356 0
4156 4233 4445 0
4445 4304 4156 0
4306 4356 4105 0
4357 4306 4237 0
4446 4359 4305 0
4238 4447 4159 0
4239 4159 4448 0
4449 4237 4161 0
4360 4449 4161 0
4359 4362 4358 0
4163 4239 4448 0
4362 4359 4450 0
4363 4362 4451 0
4244 4245 4452 0
4313 4244 4452 0
4369 4368 4246 0
4453 4312 4046 0
4372 4371 4454 0
4250 4314 4315 0
4455 4456 4457 0
4247 4315 4377 0
4250 4315 4247 0
4458 4459 4457 0
4458 4457 4460 0
4457 4461 4455 0
4459 4461 4457 0
4382 4252 4316 0
4253 4379 4316 0
4462 4248 4380 0
4380 4381 4462 0
4461 4459 4463 0
4247 4175 4250 0
4054 4251 4250 0
4463 4459 4464 0
4054 4250 4175 0
4321 4386 4181 0
4262 4257 4259 0
4263 4262 4465 0
4265 4115 4466 0
4117 4323 4116 0
4465 4467 4322 0
4467 4392 4322 0
4322 4263 4465 0
4182 4060 4394 0
4330 4328 4326 0
4468 4391 4395 0
4469 4468 4395 0
4399 4394 4060 0
4060 3997 4399 0
4188 4397 4396 0
4397 4398 4189 0
4470 4184 4331 0
4269 4189 4404 0
4274 4126 4408 0
4471 4274 4408 0
4274 4471 4472 0
4472 4400 4274 0
4400 4121 4274 0
4333 4128 4473 0
4406 4275 4196 0
4409 4473 4128 0
4129 4003 4474 0
4129 4474 4193 0
4475 4193 4474 0
4335 4338 4405 0
4402 4474 4003 0
4272 4273 4476 0
4341 4197 4130 0
4340 4409 4127 0
4195 4411 4340 0
4068 4276 4344 0
4344 4014 4068 0
4278 4070 4412 0
4477 4198 4136 0
4477 4411 4198 0
4478 4479 4342 0
4342 4480 4478 0
4342 4137 4480 0
4284 4279 4481 0
4482 4414 4202 0
4483 4286 4285 0
4484 4283 4203 0
4483 4287 4286 0
4417 4346 4141 0
4485 4416 4418 0
4418 4419 4485 0
4486 4140 4207 0
4207 4206 4486 0
4346 4422 4419 0
4346 4417 4422 0
4487 4420 4488 0
4487 4422 4417 0
4423 4422 4487 0
4487 4417 4420 0
4423 4487 4489 0
4289 4421 4490 0
4491 4209 4211 0
4211 4348 4492 0
4492 4491 4211 0
4217 4425 4493 0
4494 4143 4349 0
4213 4494 4214 0
4495 4425 4424 0
4217 4493 4348 0
4217 4348 4350 0
4496 4427 4291 0
4426 4149 4428 0
4426 4497 4147 0
4149 4081 4428 0
4214 4498 4293 0
4499 4146 4219 0
4219 4427 4499 0
4351 4500 4221 0
4221 4080 4351 0
4501 4222 4293 0
4293 4502 4501 0
4225 4503 4351 0
4225 4222 4503 0
4504 4434 4223 0
4223 4221 4504 0
4292 4223 4431 0
4435 4431 4223 0
4505 4429 4228 0
4506 4434 4504 0
4504 4507 4506 0
4504 4221 4507 0
4294 4436 4226 0
4228 4227 4505 0
4297 4229 4508 0
4438 4437 4509 0
4438 4509 4510 0
4510 4511 4438 0
4511 4442 4438 0
4442 4299 4438 0
4298 4512 4437 0
4302 4299 4442 0
4513 4439 4088 0
4514 4157 4354 0
4354 4515 4514 0
4514 4235 4157 0
4354 4441 4515 0
4235 4446 4305 0
4448 4159 4447 0
4238 4097 4516 0
4097 4307 4516 0
4103 4163 4240 0
4163 4517 4240 0
4240 4517 4241 0
4518 4309 4241 0
4310 4166 4366 0
4373 4367 4363 0
4519 4373 4363 0
4046 4313 4453 0
4373 4520 4371 0
4376 4377 4315 0
4168 4247 4369 0
4454 4378 4372 0
4455 4461 4521 0
4461 4463 4521 0
4462 4381 4522 0
4458 4523 4459 0
4524 4521 4463 0
4381 4176 4255 0
4254 4382 4384 0
4259 4320 4262 0
4114 4057 4525 0
4393 4387 4324 0
4324 4118 4393 0
4327 4116 4323 0
4323 4388 4327 0
4393 4394 4526 0
4392 4327 4388 0
4185 4396 4395 0
4527 4330 4528 0
4330 4326 4528 0
4397 4189 4401 0
4329 4529 4399 0
4332 4529 4329 0
4530 4332 4400 0
4404 4189 4398 0
4531 4404 4398 0
4272 4532 4271 0
4532 4337 4271 0
4412 4338 4277 0
4475 4533 4193 0
4193 4533 4276 0
4338 4412 4534 0
4197 4341 4343 0
4341 4413 4343 0
4535 4480 4137 0
4137 4344 4535 0
4414 4136 4069 0
4136 4414 4477 0
4070 4282 4536 0
4536 4534 4070 0
4282 4284 4536 0
4481 4536 4284 0
4283 4537 4285 0
4287 4482 4202 0
4345 4281 4479 0
4345 4484 4203 0
4416 4206 4205 0
4486 4206 4416 0
4485 4486 4416 0
4420 4288 4208 0
4486 4421 4140 0
4420 4417 4288 0
4485 4419 4538 0
4210 4209 4539 0
4423 4540 4538 0
4538 4419 4423 0
4488 4420 4539 0
4420 4210 4539 0
4488 4539 4541 0
4487 4488 4489 0
4144 4143 4494 0
4494 4213 4144 0
4291 4290 4496 0
4147 4497 4349 0
4542 4543 4497 0
4497 4426 4542 0
4543 4349 4497 0
4424 4217 4544 0
4424 4544 4495 0
4433 4544 4217 0
4432 4544 4433 0
4545 4426 4428 0
4293 4498 4502 0
4543 4502 4498 0
4146 4499 4296 0
4430 4545 4428 0
4503 4546 4351 0
4547 4546 4503 0
4503 4222 4547 0
4295 4296 4548 0
4546 4500 4351 0
4501 4547 4222 0
4429 4505 4430 0
4549 4226 4436 0
4434 4506 4435 0
4549 4298 4226 0
4227 4297 4550 0
4551 4549 4436 0
4298 4549 4512 0
4297 4508 4550 0
4508 4229 4230 0
4509 4437 4512 0
4552 4550 4508 0
4230 4090 4439 0
4353 4553 4231 0
4554 4555 4444 0
4353 4355 4556 0
4353 4232 4355 0
4234 4231 4557 0
4444 4513 4088 0
4444 4304 4554 0
4558 4554 4304 0
4443 4556 4355 0
4443 4357 4559 0
4445 4233 4234 0
4304 4445 4558 0
4237 4449 4560 0
4561 4359 4446 0
4238 4516 4447 0
4517 4163 4448 0
4562 4517 4448 0
4563 4516 4307 0
4518 4564 4361 0
4311 4565 4242 0
4245 4368 4566 0
4368 4369 4567 0
4567 4566 4368 0
4452 4453 4313 0
4568 4370 4312 0
4312 4453 4568 0
4375 4248 4569 0
4522 4569 4462 0
4569 4248 4462 0
4316 4379 4382 0
4381 4255 4522 0
4570 4522 4255 0
4255 4386 4571 0
4383 4262 4320 0
4383 4384 4572 0
4570 4255 4571 0
4466 4319 4385 0
4385 4265 4466 0
4525 4319 4114 0
4262 4573 4465 0
4525 4574 4319 0
4525 4057 4325 0
4389 4390 4326 0
4326 4575 4528 0
4576 4577 4578 0
4576 4529 4577 0
4468 4390 4391 0
4579 4327 4392 0
4120 4327 4579 0
4580 4120 4579 0
4392 4580 4579 0
4397 4395 4396 0
4577 4581 4582 0
4395 4397 4583 0
4398 4268 4531 0
4125 4120 4580 0
4184 4470 4268 0
4470 4531 4268 0
4470 4584 4531 0
4580 4273 4125 0
4332 4530 4529 0
4331 4585 4470 0
4401 4586 4587 0
4588 4587 4586 0
4401 4589 4586 0
4273 4590 4476 0
4333 4473 4589 0
4589 4401 4333 0
4334 4402 4270 0
4471 4408 4275 0
4337 4532 4410 0
4591 4405 4338 0
4338 4534 4591 0
4592 4593 4594 0
4595 4593 4592 0
4593 4533 4594 0
4596 4409 4340 0
4597 4596 4340 0
4412 4070 4534 0
4134 4598 4279 0
4342 4479 4413 0
4598 4481 4279 0
4285 4537 4483 0
4484 4599 4283 0
4283 4600 4601 0
4283 4599 4600 0
4423 4602 4540 0
4073 4289 4490 0
4492 4348 4493 0
4493 4425 4492 0
4603 4495 4544 0
4290 4604 4496 0
4495 4603 4605 0
4542 4430 4606 0
4542 4545 4430 0
4432 4603 4544 0
4426 4545 4542 0
4507 4221 4500 0
4296 4499 4548 0
4607 4506 4507 0
4608 4432 4431 0
4430 4505 4609 0
4506 4610 4435 0
4295 4548 4436 0
4550 4505 4227 0
4549 4611 4512 0
4551 4611 4549 0
4612 4613 4509 0
4509 4512 4612 0
4613 4510 4509 0
4513 4444 4555 0
4440 4614 4441 0
4514 4515 4441 0
4441 4614 4514 0
4237 4559 4357 0
4514 4446 4235 0
4615 4308 4361 0
4563 4307 4616 0
4307 4364 4616 0
4241 4517 4617 0
4617 4518 4241 0
4361 4309 4518 0
4361 4618 4615 0
4519 4363 4451 0
4616 4364 4365 0
4365 4310 4619 0
4620 4310 4366 0
4366 4242 4565 0
4621 4245 4566 0
4566 4567 4622 0
4452 4245 4621 0
4370 4565 4311 0
4453 4452 4623 0
4376 4369 4377 0
4369 4376 4567 0
4370 4568 4456 0
4456 4624 4370 0
4453 4623 4625 0
4625 4568 4453 0
4454 4371 4626 0
4456 4568 4457 0
4456 4455 4627 0
4455 4521 4627 0
4628 4569 4629 0
4628 4629 4630 0
4522 4629 4569 0
4631 4382 4379 0
4523 4458 4632 0
4632 4633 4523 0
4633 4459 4523 0
4634 4382 4631 0
4522 4635 4629 0
4524 4463 4636 0
4634 4262 4383 0
4637 4321 4319 0
4386 4321 4571 0
4466 4115 4319 0
4465 4638 4639 0
4639 4640 4465 0
4573 4638 4465 0
4574 4525 4641 0
4575 4326 4390 0
4390 4468 4642 0
4582 4643 4577 0
4576 4526 4394 0
4394 4399 4576 0
4578 4526 4576 0
4392 4644 4645 0
4576 4399 4529 0
4577 4529 4581 0
4395 4583 4469 0
4646 4469 4583 0
4397 4401 4587 0
4397 4587 4583 0
4392 4645 4580 0
4580 4647 4590 0
4590 4273 4580 0
4584 4404 4531 0
4530 4400 4648 0
4584 4470 4585 0
4331 4649 4585 0
4650 4476 4590 0
4651 4650 4590 0
4590 4647 4651 0
4650 4272 4476 0
4474 4402 4475 0
4406 4405 4652 0
4191 4410 4653 0
4653 4334 4191 0
4405 4591 4654 0
4532 4272 4650 0
4655 4654 4591 0
4276 4593 4656 0
4410 4657 4658 0
4410 4532 4657 0
4344 4656 4535 0
4344 4276 4656 0
4659 4535 4656 0
4534 4536 4591 0
4340 4411 4597 0
4660 4597 4411 0
4536 4481 4661 0
4482 4477 4414 0
4537 4283 4601 0
4482 4287 4483 0
4413 4479 4281 0
4281 4343 4413 0
4479 4484 4345 0
4486 4485 4662 0
4538 4662 4485 0
4539 4209 4663 0
4663 4541 4539 0
4489 4664 4423 0
4665 4664 4489 0
4489 4488 4665 0
4602 4423 4664 0
4666 4667 4425 0
4666 4425 4495 0
4425 4667 4492 0
4668 4666 4495 0
4290 4669 4604 0
4347 4669 4290 0
4496 4604 4670 0
4214 4494 4498 0
4547 4671 4546 0
4672 4671 4547 0
4672 4673 4671 0
4671 4500 4546 0
4674 4499 4427 0
4502 4543 4542 0
4502 4542 4675 0
4501 4675 4547 0
4548 4499 4676 0
4609 4606 4430 0
4677 4606 4609 0
4608 4431 4678 0
4431 4435 4678 0
4679 4680 4681 0
4682 4681 4680 0
4681 4683 4679 0
4610 4684 4435 0
4685 4679 4683 0
4611 4612 4512 0
4686 4612 4611 0
4611 4687 4686 0
4611 4688 4687 0
4611 4551 4688 0
4551 4436 4688 0
4508 4230 4689 0
4231 4553 4557 0
4553 4353 4556 0
4690 4234 4557 0
4234 4691 4445 0
4691 4692 4445 0
4445 4692 4558 0
4693 4694 4443 0
4443 4694 4695 0
4693 4443 4559 0
4696 4514 4614 0
4697 4696 4614 0
4514 4561 4446 0
4560 4693 4559 0
4559 4237 4560 0
4450 4359 4561 0
4698 4562 4448 0
4448 4447 4698 0
4308 4699 4360 0
4698 4516 4563 0
4700 4360 4699 0
4308 4615 4699 0
4450 4451 4362 0
4701 4518 4617 0
4620 4619 4310 0
4361 4564 4618 0
4565 4702 4366 0
4452 4621 4703 0
4703 4623 4452 0
4565 4624 4702 0
4370 4624 4565 0
4622 4567 4376 0
4376 4704 4622 0
4376 4375 4704 0
4456 4705 4624 0
4706 4460 4457 0
4456 4627 4705 0
4707 4379 4378 0
4378 4454 4707 0
4708 4569 4628 0
4628 4709 4708 0
4379 4707 4631 0
4463 4464 4636 0
4384 4382 4634 0
4634 4572 4384 0
4522 4570 4635 0
4572 4634 4383 0
4638 4573 4710 0
4710 4639 4638 0
4639 4711 4640 0
4640 4711 4712 0
4465 4640 4467 0
4712 4467 4640 0
4644 4392 4467 0
4644 4467 4713 0
4467 4712 4713 0
4714 4715 4390 0
4716 4714 4390 0
4643 4717 4577 0
4643 4718 4717 0
4717 4578 4577 0
4719 4720 4528 0
4719 4528 4575 0
4575 4715 4719 0
4390 4715 4575 0
4330 4527 4721 0
4646 4583 4587 0
4330 4721 4331 0
4580 4645 4647 0
4722 4585 4649 0
4723 4403 4404 0
4403 4723 4407 0
4407 4723 4724 0
4473 4409 4725 0
4475 4402 4726 0
4402 4334 4653 0
4275 4406 4727 0
4405 4654 4652 0
4475 4594 4533 0
4593 4276 4533 0
4532 4728 4657 0
4407 4729 4339 0
4598 4339 4729 0
4339 4598 4134 0
4730 4660 4411 0
4731 4591 4536 0
4595 4660 4730 0
4732 4411 4477 0
4732 4730 4411 0
4599 4484 4479 0
4733 4486 4662 0
4538 4540 4662 0
4490 4421 4734 0
4488 4541 4665 0
4664 4540 4602 0
4073 4490 4347 0
4209 4491 4663 0
4349 4498 4494 0
4605 4668 4495 0
4349 4543 4498 0
4735 4605 4603 0
4736 4427 4496 0
4675 4501 4502 0
4676 4499 4674 0
4676 4674 4737 0
4681 4677 4683 0
4678 4435 4738 0
4436 4548 4739 0
4677 4609 4683 0
4680 4679 4740 0
4505 4550 4685 0
4609 4685 4683 0
4609 4505 4685 0
4741 4688 4436 0
4689 4230 4439 0
4689 4439 4742 0
4689 4742 4743 0
4511 4440 4442 0
4690 4691 4234 0
4556 4443 4695 0
4560 4694 4693 0
4614 4744 4697 0
4614 4440 4744 0
4560 4449 4745 0
4449 4360 4700 0
4449 4700 4745 0
4698 4447 4516 0
4746 4747 4699 0
4747 4700 4699 0
4615 4746 4699 0
4615 4618 4748 0
4619 4616 4365 0
4749 4618 4564 0
4750 4702 4624 0
4520 4626 4371 0
4751 4752 4753 0
4626 4520 4754 0
4755 4756 4753 0
4753 4752 4755 0
4752 4751 4757 0
4758 4454 4626 0
4754 4758 4626 0
4457 4568 4625 0
4759 4752 4757 0
4707 4454 4758 0
4758 4754 4707 0
4708 4375 4569 0
4760 4759 4757 0
4524 4761 4521 0
4761 4627 4521 0
4762 4458 4763 0
4458 4460 4706 0
4706 4763 4458 0
4524 4636 4764 0
4633 4464 4459 0
4765 4262 4634 0
4574 4766 4319 0
4637 4767 4321 0
4525 4768 4641 0
4712 4711 4769 0
4387 4393 4526 0
4325 4387 4768 0
4715 4714 4770 0
4770 4719 4715 0
4771 4716 4390 0
4771 4390 4642 0
4468 4772 4642 0
4642 4772 4773 0
4773 4771 4642 0
4772 4774 4773 0
4469 4772 4468 0
4644 4713 4645 0
4713 4712 4775 0
4775 4712 4769 0
4643 4582 4776 0
4777 4578 4717 0
4717 4718 4777 0
4720 4527 4528 0
4587 4778 4646 0
4779 4581 4529 0
4780 4772 4469 0
4721 4649 4331 0
4529 4530 4779 0
4404 4584 4723 0
4530 4648 4779 0
4781 4723 4585 0
4723 4584 4585 0
4402 4782 4726 0
4402 4653 4782 0
4406 4652 4783 0
4783 4727 4406 0
4596 4725 4409 0
4591 4731 4655 0
4659 4656 4593 0
4478 4535 4659 0
4480 4535 4478 0
4481 4598 4661 0
4477 4482 4483 0
4732 4537 4601 0
4601 4784 4732 0
4785 4599 4479 0
4479 4478 4785 0
4662 4540 4786 0
4734 4421 4486 0
4733 4734 4486 0
4664 4665 4787 0
4492 4667 4541 0
4541 4491 4492 0
4667 4666 4541 0
4666 4668 4788 0
4490 4669 4347 0
4669 4670 4604 0
4603 4432 4789 0
4789 4735 4603 0
4736 4790 4427 0
4791 4427 4790 0
4792 4791 4790 0
4790 4736 4792 0
4500 4607 4507 0
4791 4674 4427 0
4500 4793 4607 0
4608 4678 4794 0
4737 4548 4676 0
4682 4677 4681 0
4680 4740 4795 0
4548 4737 4739 0
4796 4739 4737 0
4797 4737 4674 0
4794 4678 4738 0
4740 4679 4798 0
4684 4799 4800 0
4684 4610 4799 0
4738 4435 4684 0
4741 4436 4739 0
4739 4796 4741 0
4801 4685 4550 0
4550 4552 4801 0
4738 4684 4802 0
4803 4508 4689 0
4689 4743 4803 0
4439 4513 4742 0
4555 4804 4513 0
4803 4552 4508 0
4805 4690 4557 0
4557 4553 4805 0
4691 4690 4806 0
4558 4692 4807 0
4807 4554 4558 0
4808 4553 4556 0
4695 4808 4556 0
4809 4553 4808 0
4440 4511 4744 0
4514 4696 4561 0
4561 4696 4810 0
4697 4811 4696 0
4696 4811 4810 0
4812 4694 4560 0
4451 4450 4813 0
4813 4814 4451 0
4813 4815 4814 0
4698 4563 4616 0
4816 4519 4451 0
4817 4818 4815 0
4819 4814 4815 0
4518 4701 4820 0
4821 4619 4620 0
4820 4564 4518 0
4819 4822 4814 0
4749 4564 4823 0
4702 4620 4366 0
4824 4520 4373 0
4825 4754 4520 0
4826 4751 4753 0
4756 4822 4753 0
4623 4703 4827 0
4623 4827 4625 0
4828 4755 4752 0
4829 4622 4704 0
4706 4457 4625 0
4752 4830 4831 0
4831 4828 4752 0
4752 4759 4830 0
4829 4704 4375 0
4375 4708 4829 0
4832 4707 4754 0
4759 4760 4830 0
4833 4830 4760 0
4458 4762 4834 0
4762 4835 4834 0
4458 4834 4632 0
4636 4836 4764 0
4837 4836 4464 0
4836 4636 4464 0
4570 4571 4635 0
4319 4766 4637 0
4838 4839 4840 0
4841 4839 4838 0
4321 4767 4571 0
4767 4637 4842 0
4574 4641 4766 0
4711 4639 4843 0
4768 4525 4325 0
4711 4843 4769 0
4714 4844 4770 0
4714 4716 4844 0
4387 4526 4845 0
4845 4768 4387 0
4771 4773 4846 0
4847 4713 4775 0
4713 4847 4645 0
4775 4769 4848 0
4849 4847 4775 0
4581 4776 4582 0
4527 4850 4721 0
4851 4776 4779 0
4847 4852 4853 0
4849 4852 4847 0
4469 4646 4780 0
4854 4847 4853 0
4651 4647 4853 0
4853 4647 4854 0
4588 4586 4589 0
4645 4854 4647 0
4645 4847 4854 0
4855 4856 4589 0
4856 4588 4589 0
4857 4648 4472 0
4472 4471 4857 0
4726 4594 4475 0
4858 4275 4727 0
4727 4783 4858 0
4652 4654 4783 0
4532 4650 4859 0
4859 4860 4532 0
4860 4728 4532 0
4861 4862 4725 0
4859 4863 4860 0
4860 4864 4728 0
4860 4863 4864 0
4865 4866 4410 0
4866 4653 4410 0
4731 4598 4729 0
4596 4597 4867 0
4867 4725 4596 0
4655 4731 4868 0
4731 4661 4598 0
4661 4731 4536 0
4869 4595 4730 0
4730 4732 4869 0
4732 4483 4537 0
4477 4483 4732 0
4601 4600 4784 0
4870 4540 4664 0
4787 4870 4664 0
4663 4491 4541 0
4871 4788 4668 0
4872 4873 4669 0
4874 4872 4490 0
4872 4669 4490 0
4605 4875 4876 0
4605 4735 4875 0
4877 4875 4735 0
4496 4670 4736 0
4542 4878 4675 0
4606 4878 4542 0
4671 4793 4500 0
4672 4547 4675 0
4879 4672 4675 0
4878 4879 4675 0
4608 4789 4432 0
4606 4677 4878 0
4795 4682 4680 0
4794 4880 4608 0
4881 4737 4797 0
4610 4506 4607 0
4741 4796 4882 0
4799 4883 4800 0
4799 4610 4883 0
4801 4884 4685 0
4884 4679 4685 0
4738 4802 4885 0
4684 4886 4802 0
4802 4886 4887 0
4552 4803 4801 0
4513 4804 4742 0
4688 4741 4882 0
4887 4886 4888 0
4555 4554 4807 0
4809 4889 4553 0
4889 4805 4553 0
4890 4510 4613 0
4806 4692 4691 0
4511 4891 4744 0
4892 4893 4894 0
4895 4893 4892 0
4896 4897 4892 0
4892 4897 4895 0
4898 4450 4561 0
4560 4745 4812 0
4450 4898 4899 0
4450 4900 4813 0
4698 4821 4901 0
4616 4821 4698 0
4748 4746 4615 0
4902 4617 4517 0
4903 4902 4517 0
4902 4701 4617 0
4904 4820 4701 0
4905 4904 4701 0
4902 4905 4701 0
4816 4373 4519 0
4616 4619 4821 0
4819 4815 4818 0
4906 4748 4618 0
4618 4749 4906 0
4816 4451 4814 0
4824 4816 4814 0
4814 4822 4824 0
4907 4620 4702 0
4564 4820 4823 0
4819 4826 4822 0
4816 4824 4373 0
4904 4823 4820 0
4823 4908 4749 0
4822 4826 4753 0
4750 4909 4702 0
4751 4910 4757 0
4709 4829 4708 0
4705 4627 4911 0
4705 4911 4912 0
4709 4628 4913 0
4914 4762 4763 0
4627 4915 4916 0
4832 4917 4707 0
4762 4914 4835 0
4918 4761 4524 0
4919 4630 4629 0
4629 4635 4919 0
4524 4764 4918 0
4919 4628 4630 0
4633 4837 4464 0
4920 4919 4635 0
4921 4635 4571 0
4262 4765 4922 0
4923 4922 4765 0
4924 4841 4838 0
4842 4571 4767 0
4846 4716 4771 0
4925 4846 4773 0
4526 4578 4845 0
4643 4776 4926 0
4581 4779 4776 0
4643 4850 4527 0
4863 4853 4852 0
4927 4863 4852 0
4852 4928 4927 0
4928 4852 4929 0
4648 4400 4472 0
4649 4721 4930 0
4585 4722 4781 0
4930 4722 4649 0
4651 4853 4650 0
4853 4859 4650 0
4863 4859 4853 0
4471 4275 4857 0
4931 4407 4724 0
4654 4932 4783 0
4933 4855 4589 0
4473 4725 4589 0
4931 4729 4407 0
4933 4589 4725 0
4782 4653 4934 0
4729 4931 4868 0
4729 4868 4731 0
4935 4592 4594 0
4593 4595 4869 0
4936 4657 4728 0
4660 4595 4597 0
4785 4600 4599 0
4870 4937 4540 0
4938 4937 4870 0
4540 4937 4786 0
4874 4490 4734 0
4787 4541 4666 0
4666 4788 4787 0
4669 4736 4670 0
4668 4605 4871 0
4939 4671 4673 0
4789 4877 4735 0
4789 4608 4880 0
4940 4794 4738 0
4878 4677 4682 0
4941 4610 4607 0
4942 4796 4737 0
4884 4943 4679 0
4940 4944 4945 0
4945 4794 4940 0
4940 4738 4944 0
4884 4801 4943 0
4802 4887 4946 0
4802 4947 4948 0
4687 4688 4882 0
4949 4686 4687 0
4807 4804 4555 0
4802 4946 4947 0
4888 4946 4887 0
4806 4805 4950 0
4806 4690 4805 0
4692 4806 4951 0
4511 4510 4890 0
4890 4891 4511 0
4952 4744 4891 0
4890 4952 4891 0
4896 4953 4954 0
4896 4892 4955 0
4955 4953 4896 0
4956 4957 4958 0
4959 4956 4958 0
4952 4697 4744 0
4896 4954 4960 0
4960 4897 4896 0
4961 4895 4897 0
4899 4898 4561 0
4962 4562 4698 0
4698 4901 4962 0
4962 4517 4562 0
4817 4815 4813 0
4821 4620 4963 0
4620 4964 4963 0
4819 4818 4826 0
4826 4818 4965 0
4818 4817 4965 0
4904 4966 4823 0
4756 4824 4822 0
4907 4702 4967 0
4966 4908 4823 0
4825 4520 4824 0
4621 4566 4703 0
4624 4705 4912 0
4910 4751 4826 0
4756 4825 4824 0
4756 4755 4825 0
4755 4754 4825 0
4828 4754 4755 0
4754 4828 4968 0
4706 4625 4763 0
4828 4831 4968 0
4916 4911 4627 0
4627 4761 4969 0
4919 4834 4835 0
4918 4764 4970 0
4631 4707 4971 0
4837 4633 4972 0
4837 4972 4836 0
4917 4971 4707 0
4971 4634 4631 0
4921 4571 4842 0
4840 4973 4838 0
4840 4839 4974 0
4974 4839 4841 0
4262 4922 4573 0
4975 4573 4922 0
4976 4637 4766 0
4976 4766 4977 0
4838 4978 4924 0
4976 4842 4637 0
4639 4710 4979 0
4769 4980 4848 0
4769 4843 4980 0
4768 4981 4641 0
4643 4982 4718 0
4983 4770 4844 0
4773 4774 4925 0
4643 4720 4982 0
4527 4720 4643 0
4984 4774 4772 0
4850 4643 4926 0
4587 4985 4778 0
4778 4986 4646 0
4987 4779 4648 0
4987 4851 4779 0
4986 4780 4646 0
4855 4933 4988 0
4857 4987 4648 0
4858 4987 4857 0
4857 4275 4858 0
4866 4989 4653 0
4932 4858 4783 0
4866 4865 4989 0
4990 4932 4654 0
4932 4990 4991 0
4862 4933 4725 0
4594 4726 4935 0
4934 4992 4782 0
4992 4726 4782 0
4592 4935 4597 0
4592 4597 4595 0
4658 4865 4410 0
4865 4658 4993 0
4593 4869 4659 0
4733 4662 4786 0
4665 4541 4787 0
4994 4605 4876 0
4994 4871 4605 0
4871 4994 4995 0
4669 4873 4736 0
4996 4736 4873 0
4939 4793 4671 0
4789 4880 4877 0
4941 4607 4997 0
4607 4793 4997 0
4797 4674 4791 0
4998 4797 4791 0
4999 4795 5000 0
5001 4878 4682 0
4795 4740 5000 0
4941 4883 4610 0
4679 4943 4798 0
5002 4798 4943 0
4737 4881 4942 0
4801 4803 5003 0
4796 4942 5004 0
5004 4882 4796 0
4885 4944 4738 0
5005 4888 4886 0
4888 5005 5006 0
4686 4613 4612 0
4946 4888 5006 0
4889 4950 4805 0
4809 4808 4695 0
4695 4694 4809 0
5007 4958 4957 0
4892 4894 4955 0
4697 4952 5008 0
4954 4809 4694 0
4894 4893 4955 0
5009 4955 4893 0
4812 4954 4694 0
5010 5009 4893 0
5011 4959 4958 0
5012 4811 4697 0
4810 4899 4561 0
4895 5013 4893 0
5014 5015 4959 0
4959 5011 5014 0
4811 5016 4810 0
4899 4900 4450 0
4700 4747 5017 0
5017 4745 4700 0
4517 4962 4903 0
4746 4748 5018 0
4906 5018 4748 0
4620 4907 5019 0
4703 4566 5020 0
5020 4566 4622 0
4967 4702 4909 0
4966 5021 4908 0
5020 4622 4827 0
4827 4703 5020 0
4912 4750 4624 0
4757 4910 4760 0
4829 4709 5022 0
4625 4827 4763 0
4827 4914 4763 0
5022 4913 4914 0
4914 4827 5022 0
4913 4835 4914 0
5023 4969 4761 0
4968 4831 5024 0
5025 4916 4915 0
4915 5023 5025 0
4915 4627 5023 0
4627 4969 5023 0
4916 5026 5027 0
5025 5026 4916 0
4831 4830 4833 0
4833 4760 5028 0
4628 4919 4913 0
4632 4834 5029 0
5029 5030 4632 0
4835 4913 4919 0
4633 4632 5030 0
4836 5031 4764 0
4765 4634 4923 0
4635 4921 4920 0
4634 5032 4923 0
4634 4971 5032 0
4921 5033 4920 0
4921 5034 5035 0
5035 5033 4921 0
5036 4838 4973 0
4838 5036 4978 0
4573 5037 4710 0
4573 4975 5037 0
4974 4841 5038 0
5039 5038 4841 0
4841 4924 4978 0
4641 4977 4766 0
5039 4841 4716 0
5037 5040 4710 0
4978 5041 4841 0
4641 4981 4977 0
5041 4716 4841 0
4716 5041 4844 0
5037 4975 5042 0
4979 4710 5040 0
4578 5043 4845 0
4981 4768 4845 0
4845 5043 4981 0
4720 4719 5044 0
4776 4851 4926 0
4719 4770 5045 0
4588 5046 4587 0
5047 4772 4780 0
5048 5047 4780 0
5049 5048 4780 0
5046 4985 4587 0
5046 4588 4856 0
4778 5050 4986 0
4780 4986 5049 0
4723 4781 4724 0
5051 5046 4856 0
4722 4930 4990 0
4858 4932 4991 0
4992 4935 4726 0
4653 4989 4934 0
4654 4655 4868 0
4861 4725 4867 0
5052 4597 4935 0
5052 4867 4597 0
4936 4658 4657 0
4600 4785 4784 0
5053 4734 4733 0
5053 4733 4786 0
5053 4874 4734 0
4788 5054 4787 0
4871 5054 4788 0
4996 5055 4736 0
4994 4876 4995 0
4736 5056 4792 0
5057 4877 4880 0
4939 4997 4793 0
4999 5001 4795 0
5058 5001 4999 0
4795 5001 4682 0
4998 4881 4797 0
4798 5002 4740 0
5059 5000 4740 0
4800 4883 5060 0
5061 4684 4800 0
4943 4801 5003 0
5062 4742 4804 0
5062 4743 4742 0
5063 5064 5065 0
4885 4802 4948 0
5065 4804 5063 0
4804 4807 5063 0
4807 4951 5063 0
4947 5066 4948 0
4956 5066 4947 0
4955 4951 4806 0
4951 4807 4692 0
4613 5067 4890 0
5068 5067 4613 0
4613 4686 5068 0
5069 4956 4947 0
4956 5070 5066 0
5069 4957 4956 0
5069 5071 4957 0
4953 4955 5072 0
5007 5011 4958 0
4809 4954 4953 0
5073 4956 4959 0
5013 5074 4893 0
5075 5073 4959 0
5076 4811 5012 0
5011 5077 5014 0
5011 5007 5077 0
4959 5015 5078 0
4812 4745 5079 0
5016 5080 4899 0
5081 4813 4900 0
4746 5018 4747 0
4813 5081 4817 0
5082 4902 4903 0
4749 4908 4906 0
4967 5083 4907 0
5084 4904 4905 0
4622 4829 5085 0
5086 4750 4912 0
5087 4760 4910 0
4912 4911 5086 0
4832 4754 4968 0
5086 4911 4916 0
4968 5024 4832 0
4832 5024 4917 0
4831 5088 5024 0
5089 5088 4831 0
4831 4833 5089 0
4834 4919 5090 0
4834 5090 5091 0
4633 5092 4972 0
5031 4970 4764 0
4973 5093 5036 0
5094 5093 4973 0
4840 4974 5095 0
5032 4971 5096 0
5097 4976 4977 0
5037 5042 5040 0
4982 4720 5098 0
5042 5099 5040 0
5099 4979 5040 0
4718 4982 5098 0
5043 4578 4777 0
4775 4848 4849 0
4721 4850 5100 0
5101 4851 4987 0
4986 5050 5102 0
5102 5049 4986 0
4985 5050 4778 0
4985 5103 5050 0
4728 4864 5104 0
5105 4728 5104 0
4930 4991 4990 0
4654 4868 4990 0
4868 4931 4724 0
4724 5106 4868 0
4865 4934 4989 0
5107 5052 4935 0
4935 4992 5107 0
5105 4936 4728 0
4936 4993 4658 0
4659 4869 4784 0
4732 4784 4869 0
4478 4659 5108 0
5108 4785 4478 0
4785 5108 4784 0
4786 4937 5053 0
4787 5054 4938 0
4736 5055 5109 0
4939 4673 4672 0
4736 5109 5056 0
5110 5111 5112 0
5113 5110 5112 0
4672 5058 4939 0
5114 5115 5112 0
5112 5111 5114 0
5114 5116 5115 0
5056 4791 4792 0
5001 4672 4879 0
4878 5001 4879 0
4880 4794 5117 0
5117 5118 4880 0
4883 4941 5060 0
5059 4740 5002 0
4684 5061 4886 0
4803 4743 5003 0
5119 5120 5004 0
4942 5119 5004 0
5120 5119 5121 0
4942 5121 5119 0
5004 4687 4882 0
5122 5006 5005 0
5005 5123 5122 0
4743 5062 5003 0
5124 5068 4686 0
4949 4687 5004 0
4949 5004 5125 0
5126 4946 5006 0
5126 4947 4946 0
4806 4950 4955 0
5071 5007 4957 0
5007 5071 5127 0
5071 5128 5127 0
5071 5069 5128 0
5067 4952 4890 0
5073 5070 4956 0
5009 5010 5129 0
5129 4955 5009 0
5070 5073 5130 0
5074 5010 4893 0
4960 4954 5131 0
4897 4960 4961 0
4895 4961 5013 0
5132 5074 5013 0
5133 5130 5075 0
5075 5130 5073 0
5075 4959 5078 0
4810 5016 4899 0
5134 5135 4811 0
4811 5076 5134 0
5016 4811 5135 0
4900 4899 5080 0
5017 5079 4745 0
5136 5078 5015 0
5080 5081 4900 0
5137 5078 5136 0
4962 5082 4903 0
5138 4817 5081 0
5081 5080 5139 0
5138 5081 5139 0
5140 4965 5138 0
5138 4965 4817 0
4964 4620 5019 0
4963 4964 5141 0
5142 4964 5019 0
5143 5019 4907 0
5083 5143 4907 0
4906 4908 5144 0
4826 4965 5145 0
5146 4967 4909 0
5147 5146 4909 0
4910 4826 5145 0
4909 4750 5147 0
5087 5028 4760 0
4761 4918 5148 0
4761 5148 5149 0
5149 5023 4761 0
4918 5149 5148 0
5150 5089 4833 0
5088 5089 5150 0
5024 5088 5151 0
5092 4633 5030 0
5152 4918 4970 0
4922 4923 5153 0
5095 5038 5154 0
5095 4974 5038 0
5153 4975 4922 0
5036 5093 5155 0
4921 4842 5034 0
4976 5097 5156 0
4843 4639 4980 0
4716 5157 5039 0
4639 4979 4980 0
5041 5158 4844 0
5159 5157 4716 0
4716 4846 4925 0
4925 5159 4716 0
5099 4980 4979 0
5098 5160 4718 0
5160 4777 4718 0
4720 5044 5098 0
5099 5042 5161 0
5162 4981 5043 0
4848 4980 5163 0
4770 4983 5045 0
4849 4848 4929 0
5045 5044 4719 0
4851 5101 4926 0
4850 4926 5100 0
5164 5100 4926 0
4772 5047 4984 0
4929 4852 4849 0
4721 5100 4930 0
4987 5165 5101 0
4987 4858 5165 0
5166 5051 4856 0
4988 5166 4856 0
4856 4855 4988 0
5106 4722 4990 0
5106 4781 4722 0
5106 4724 4781 0
4988 4933 4862 0
5167 5165 4858 0
4991 5167 4858 0
4868 5106 4990 0
5168 5107 4992 0
4934 4865 5169 0
4865 4993 5169 0
5170 4992 4934 0
4993 4936 5171 0
5105 5171 4936 0
5052 4861 4867 0
5108 4659 4784 0
5172 5053 4937 0
4937 4938 5172 0
4938 4870 4787 0
5054 4871 4995 0
4872 4874 5053 0
5172 4872 5053 0
4872 4996 4873 0
4875 4877 4876 0
5111 4876 4877 0
5055 4996 5109 0
4876 5111 5110 0
5057 5111 4877 0
5173 5114 5111 0
5111 5057 5173 0
5174 5175 5115 0
5115 5116 5174 0
4939 5176 4997 0
4791 5056 5177 0
4672 5001 5058 0
5058 4999 5176 0
4880 5118 5057 0
5177 4998 4791 0
5177 5056 5178 0
5179 4999 5000 0
5180 5117 4794 0
5181 5059 5002 0
5182 5181 5002 0
5000 5059 5181 0
5183 5182 5002 0
5002 4943 5183 0
5184 4942 4881 0
4881 4998 5184 0
5061 4800 5060 0
5005 5061 5123 0
5005 4886 5061 0
4885 5185 4944 0
4885 4948 5185 0
5124 4686 4949 0
5186 5124 4949 0
5125 5186 4949 0
5063 4951 5187 0
5187 5064 5063 0
4947 5188 5069 0
5126 5188 4947 0
5189 5067 5068 0
5068 5124 5189 0
4950 5072 4955 0
5190 4952 5067 0
5072 4809 4953 0
4809 5072 4889 0
5007 5127 5191 0
4952 5190 5008 0
5192 4697 5008 0
5074 5193 5010 0
5012 4697 5192 0
5191 5077 5007 0
4812 5079 5194 0
5195 5196 5014 0
5014 5077 5195 0
5197 5079 5017 0
5196 5136 5015 0
5014 5196 5015 0
4901 4821 5141 0
5141 4962 4901 0
5082 5141 5198 0
4962 5141 5082 0
5198 5141 4964 0
5018 4906 5199 0
5140 5145 4965 0
4966 4904 5200 0
5200 5021 4966 0
5021 5144 4908 0
5086 5147 4750 0
5087 4910 5201 0
4910 5145 5202 0
4910 5202 5201 0
5022 4709 4913 0
5022 5085 4829 0
4827 5085 5022 0
4834 5091 5029 0
5152 5203 4918 0
5150 4833 5028 0
5090 4919 5204 0
4970 5205 5152 0
4920 5204 4919 0
5206 4923 5032 0
4840 5095 5154 0
5207 5205 4970 0
4970 5208 5207 0
5209 4975 5153 0
5210 4842 4976 0
4976 5156 5210 0
5034 4842 5211 0
5157 5038 5039 0
5038 5157 5212 0
4975 5213 5042 0
5210 5211 4842 0
4978 5214 5158 0
5158 5041 4978 0
5215 5212 5157 0
4983 4844 5158 0
5216 5162 5043 0
5044 5217 5098 0
5218 5217 5044 0
5045 5218 5044 0
5101 5164 4926 0
5165 5164 5101 0
5219 4984 5047 0
5220 5048 5049 0
5049 5102 5220 0
5050 5221 5222 0
5223 5221 5050 0
5050 5103 5223 0
5224 4864 4863 0
4863 4927 5224 0
5100 5167 4930 0
4930 5167 4991 0
5052 5107 5225 0
5171 5169 4993 0
5054 4995 5226 0
4995 5113 5226 0
5110 5113 4876 0
5113 5112 5115 0
5176 4939 5058 0
5116 5114 5227 0
5177 5178 5228 0
5229 4941 4997 0
5229 5060 4941 0
5177 5228 4998 0
5228 5184 4998 0
4945 5180 4794 0
4943 5003 5183 0
4942 5184 5121 0
5230 5062 4804 0
5183 5062 5230 0
5065 5230 4804 0
5231 4944 5185 0
5066 5185 4948 0
5185 5232 5233 0
5234 5188 5126 0
5126 5006 5234 0
5232 5235 5236 0
5232 5066 5070 0
5232 5070 5235 0
5072 4950 4889 0
5067 5237 5190 0
5010 5193 5238 0
5190 5239 5008 0
5008 5239 5192 0
5131 4961 4960 0
4961 5131 5240 0
5194 4954 4812 0
5194 5131 4954 0
5241 5136 5196 0
4747 5197 5017 0
5242 5243 4747 0
4747 5018 5242 0
5244 5137 5136 0
5136 5241 5244 0
5141 4821 4963 0
5245 5198 5142 0
5198 4964 5142 0
4902 5082 5246 0
5138 5247 5140 0
5248 5140 5247 0
5247 5138 5139 0
5249 5019 5143 0
4905 5250 5084 0
4905 4902 5250 0
5146 5251 4967 0
5252 5202 5145 0
5085 4827 4622 0
5147 5086 5253 0
5027 5254 4916 0
5254 5253 5086 0
5086 4916 5254 0
5028 5087 5255 0
5028 5255 5256 0
5149 4918 5203 0
5029 5091 5090 0
5030 5029 5257 0
5257 5092 5030 0
5024 5151 4917 0
5094 4973 5258 0
4973 4840 5258 0
4923 5259 5153 0
5206 5259 4923 0
5259 5206 5260 0
4971 5261 5096 0
4971 4917 5261 0
5208 4970 5031 0
5031 5262 5208 0
5032 5096 5206 0
4978 5036 5214 0
5209 5153 5263 0
5213 4975 5209 0
4977 5162 5156 0
4977 4981 5162 0
5156 5097 4977 0
5161 5213 5264 0
5161 5042 5213 0
5160 5098 5217 0
5043 4777 5216 0
5159 4925 4774 0
4929 4848 5163 0
5265 5216 4777 0
4774 4984 5266 0
5267 4929 5163 0
4929 5267 4928 0
5047 5048 5219 0
4985 5046 5103 0
5268 5269 4928 0
5048 5220 5270 0
5271 5220 5102 0
5271 5270 5220 0
5100 5164 5167 0
5102 5050 5222 0
5224 5104 4864 0
4988 5272 5166 0
5272 5051 5166 0
4988 4862 5273 0
4988 5273 5274 0
4988 5274 5275 0
5275 5272 4988 0
5107 5276 5225 0
5273 4862 4861 0
5225 4861 5052 0
5107 5168 5276 0
5170 5277 4992 0
4992 5277 5168 0
4934 5278 5170 0
5278 4934 5169 0
5277 5276 5168 0
5226 4938 5054 0
4872 5172 4996 0
4995 4876 5113 0
5175 5113 5115 0
5279 5174 5116 0
5280 5178 5056 0
5056 5109 5280 0
5114 5173 5227 0
5178 5279 5281 0
5280 5279 5178 0
4997 5176 5282 0
5282 5229 4997 0
5116 5283 5279 0
5000 5181 5179 0
5179 5181 5284 0
5182 5183 5230 0
5230 5065 5285 0
5062 5183 5003 0
5187 5286 5287 0
5287 5064 5187 0
5287 5288 5064 0
5185 5066 5232 0
5188 5128 5069 0
5067 5189 5237 0
5289 5290 4955 0
4955 5291 5289 0
5290 4951 4955 0
5127 5128 5292 0
5070 5293 5235 0
4961 5240 5294 0
4961 5294 5013 0
5132 5193 5074 0
5076 5012 5295 0
5012 5192 5295 0
5075 5078 5296 0
5297 5135 5134 0
5080 5016 5139 0
5297 5139 5016 0
5297 5298 5139 0
5299 5018 5199 0
5300 5250 4902 0
4902 5246 5300 0
5140 5301 5145 0
5252 5301 5140 0
5302 5247 5139 0
5019 5249 5142 0
5199 4906 5144 0
5251 5083 4967 0
5084 5200 4904 0
5146 5147 5253 0
