#!ascii version written be Caret
6056 12108
-23.294607 -45.414913 -14.166325 0
-30.610399 -53.789726 -14.311214 0
-46.668419 -50.111782 -14.069390 0
-49.613438 -57.163601 -15.545074 0
-59.482735 -56.274227 -15.857637 0
-57.789577 -53.362034 -13.200033 0
-60.139530 -51.775532 -13.809951 0
-63.836910 -51.140884 -14.351195 0
-44.245651 -60.241703 -13.207880 0
-34.327175 -65.298912 -12.519055 0
-33.246048 -62.102898 -12.383360 0
-42.796925 -71.994667 -16.003777 0
-21.152546 -96.071846 -18.748577 0
-21.555012 -92.954323 -17.976797 0
-19.191490 -91.067284 -18.223021 0
-16.861574 -93.414902 -17.061192 0
-15.250802 -90.257957 -17.390741 0
-31.522350 -95.039482 -16.594250 0
-33.134495 -90.715805 -16.354937 0
-27.206911 -95.400620 -18.865564 0
-27.491194 -88.156647 -13.104645 0
-25.412268 -90.647064 -16.227276 0
-28.916636 -97.195885 -16.129257 0
-23.263792 -92.668884 -15.082950 0
-20.724325 -101.908791 -15.944798 0
-17.757015 -97.652138 -14.811055 0
-11.876536 65.471107 -9.656363 0
-15.935175 52.043415 -10.156217 0
-3.927305 47.221695 -11.527231 0
-6.708954 43.121296 -12.309465 0
-33.623653 38.268589 -14.088168 0
-34.056938 41.588356 -12.105105 0
-29.646702 37.258392 -11.708448 0
-43.501751 36.910309 -13.653499 0
-41.332211 39.217346 -12.528424 0
-41.843319 34.358376 -13.340893 0
-35.350296 34.333988 -12.138871 0
-45.356213 39.721519 -12.356730 0
-23.422567 37.251129 -11.809872 0
-46.784203 36.708069 -8.947140 0
-46.401958 32.181271 -12.945105 0
-38.819481 35.110382 -11.264879 0
-1.861921 36.609901 -10.767813 0
-32.908230 30.892956 -12.833162 0
-39.820057 24.097961 -13.158138 0
-6.383561 28.390953 -9.041718 0
-43.511692 22.930458 -12.058959 0
-52.868679 16.845871 -12.813246 0
-11.385031 17.468601 -11.509288 0
-55.114693 12.963214 -9.123329 0
-6.979432 5.867727 -11.198680 0
-15.187905 3.235964 -11.939117 0
-37.942242 5.659255 -11.848089 0
-49.748825 -8.835719 -14.964887 0
-45.181320 -7.179140 -13.026052 0
-50.696697 -14.085691 -14.391832 0
-45.968670 -12.192039 -13.652205 0
-56.033173 -11.786472 -11.053965 0
-27.249739 -16.969366 -13.815643 0
-27.178679 -23.855356 -13.569836 0
-23.674946 -25.483524 -10.144452 0
-66.587685 -26.904028 -10.887557 0
-62.655205 -26.800093 -11.021894 0
-19.697393 -42.797333 -13.624726 0
-18.381538 -37.890781 -11.891107 0
-65.061668 -48.074097 -14.631474 0
-38.832264 -46.630989 -11.801179 0
-26.563538 -49.411495 -15.625031 0
-27.154196 -54.319656 -14.095567 0
-50.480412 -60.046967 -11.812725 0
-33.398262 -57.033157 -13.037910 0
-62.833546 -62.197422 -11.251329 0
-59.758938 -64.101677 -13.183544 0
-44.000103 -64.382179 -13.917112 0
-37.462269 -69.797935 -16.896854 0
-37.917248 -74.272888 -17.067793 0
-33.317055 -71.021912 -17.017347 0
-34.996834 -68.215080 -15.448866 0
-31.652164 -68.554848 -15.911131 0
-30.411085 -71.487259 -15.922095 0
-33.464066 -76.017570 -15.318563 0
-40.877647 -77.158760 -15.048682 0
-37.045300 -77.822235 -16.681431 0
-37.344509 -81.540688 -17.293465 0
-31.431917 -80.210335 -17.123995 0
-30.589739 -83.204453 -17.188972 0
-36.284466 -84.668419 -15.780457 0
-30.072880 -75.456818 -15.048216 0
-27.878883 -77.906113 -15.185747 0
-41.380405 -82.103920 -15.339719 0
-32.546787 -85.924713 -14.269075 0
-28.883125 -85.990768 -16.879591 0
-26.527731 -81.772430 -17.054819 0
-24.088390 -87.801979 -16.373713 0
-20.448225 -84.762367 -16.553682 0
-23.260723 -80.779419 -15.107959 0
-21.448376 -89.746948 -15.141741 0
-18.490192 -88.308121 -13.692782 0
-14.085690 -86.941704 -14.978088 0
-15.502081 -95.734680 -13.957613 0
-9.776402 -98.384186 -17.735685 0
-13.136332 -96.809174 -15.472973 0
-11.487554 -94.431114 -16.969101 0
-7.084395 -93.997559 -16.050121 0
-15.250162 -99.993034 -16.850710 0
-7.080197 64.760994 -9.387024 0
-14.517173 64.229927 -10.481564 0
-18.781130 61.529766 -10.833647 0
-19.600298 57.333069 -11.272615 0
-20.939219 54.121284 -12.201605 0
-21.411989 50.440983 -12.418329 0
-23.874233 49.559433 -10.859645 0
-8.499911 53.976776 -7.766413 0
-30.782698 41.477444 -10.835355 0
-34.603016 44.550499 -11.864792 0
-30.611170 46.573330 -11.207077 0
-45.898319 44.094280 -8.785201 0
-40.510624 43.781502 -11.777329 0
-8.825006 42.949886 -9.953463 0
-35.346233 38.323597 -10.836553 0
-36.627861 38.698547 -7.604351 0
-26.997593 37.303246 -9.796206 0
-37.554714 32.509178 -9.819537 0
-43.282791 30.827517 -11.212973 0
-3.780234 39.132793 -11.239922 0
-46.901882 28.815727 -11.518954 0
-33.553261 29.671347 -9.792344 0
-27.970381 31.798258 -9.912897 0
-37.783028 28.314875 -9.107613 0
-40.532753 27.103649 -10.986232 0
-4.931153 24.754293 -9.655771 0
-31.559141 19.294022 -9.523632 0
-51.842957 15.530799 -10.012096 0
-39.140118 18.000195 -8.882839 0
-34.834850 14.944608 -10.002015 0
-31.241228 16.021301 -5.934589 0
-37.627075 12.853504 -8.777826 0
-48.688213 9.235045 -11.542259 0
-54.798805 4.665135 -11.873106 0
-57.186871 7.330359 -8.828263 0
-56.354687 2.749045 -9.659842 0
-48.057575 5.333539 -10.200933 0
-51.652431 0.422021 -9.294021 0
-39.635941 4.633508 -9.132843 0
-40.619385 0.296023 -7.496998 0
-7.125075 1.881121 -8.735091 0
-9.275318 -0.944449 -9.519059 0
-10.821056 1.541224 -11.188388 0
-6.597776 -0.744524 -6.684499 0
-48.051388 -10.220167 -11.039406 0
-63.458664 -12.274662 -11.332138 0
-6.223185 -6.808188 -4.574760 0
-47.187553 -15.095698 -12.100007 0
-48.113953 -16.588621 -9.731668 0
-21.084391 -18.913897 -10.795542 0
-28.973349 -20.785093 -12.730728 0
-61.760075 -22.035717 -10.826807 0
-28.936817 -30.751377 -9.295517 0
-51.929871 -27.120964 -10.434341 0
-24.330109 -32.349545 -12.580605 0
-18.510050 -33.312294 -12.205654 0
-14.265371 -32.506889 -10.631124 0
-16.952255 -40.963047 -9.385090 0
-62.139709 -39.204739 -12.799786 0
-62.989841 -45.397682 -13.349633 0
-23.184258 -49.542728 -13.582553 0
-43.739822 -48.170696 -11.005507 0
-39.825100 -51.030128 -11.996346 0
-47.394726 -55.593094 -14.117468 0
-42.638733 -53.982941 -12.961162 0
-60.049778 -57.200756 -10.894904 0
-46.869286 -59.313915 -9.706125 0
-42.546860 -58.877911 -11.275968 0
-30.056484 -58.636616 -14.795089 0
-29.416479 -61.975193 -15.653306 0
-26.907618 -57.934967 -14.522035 0
-26.438065 -61.042294 -14.311689 0
-24.643730 -59.081997 -11.627842 0
-55.430683 -61.654419 -11.542706 0
-30.282679 -65.191460 -15.343960 0
-55.570911 -67.183769 -14.990120 0
-50.847019 -64.848923 -14.623777 0
-49.382774 -68.223228 -15.741613 0
-52.360111 -71.343811 -14.993258 0
-47.785046 -65.628006 -13.158673 0
-42.876160 -67.794167 -13.012748 0
-27.669641 -68.867661 -15.174918 0
-54.254265 -70.453773 -12.469932 0
-47.923157 -72.441963 -16.010958 0
-26.699404 -66.634888 -12.349994 0
-24.877686 -72.704170 -14.114234 0
-26.970287 -75.010483 -14.687642 0
-25.769119 -69.869583 -12.871117 0
-50.328152 -75.991806 -14.383944 0
-46.255333 -78.525017 -14.334688 0
-45.140797 -75.366768 -13.612757 0
-40.679230 -73.851524 -12.662125 0
-37.672863 -75.696037 -9.673874 0
-24.832565 -77.271072 -13.447342 0
-22.597050 -80.801773 -12.272620 0
-41.030388 -86.531654 -12.301275 0
-42.514645 -83.569870 -12.262602 0
-11.086421 -86.660355 -14.033957 0
-32.761696 -94.826660 -12.540226 0
-36.444283 -89.658012 -14.963091 0
-12.593936 -91.657097 -13.344287 0
-11.343270 -91.781647 -15.644201 0
-8.189677 -89.201202 -15.366264 0
-11.017723 -102.905785 -15.546266 0
-27.230793 -100.178604 -12.289546 0
-16.138083 -104.395348 -14.222927 0
-3.681298 -97.113350 -13.015725 0
-6.077734 -101.007515 -14.240757 0
-14.144333 -105.100037 -11.301587 0
-9.365999 -104.348351 -11.878336 0
-3.349188 68.462173 -6.575317 0
-0.724629 65.937645 -4.917524 0
-19.005493 64.584450 -8.187747 0
-13.719673 64.633942 -6.390650 0
-2.517154 57.894463 -6.348181 0
-31.082975 59.919350 -9.157414 0
-25.802969 63.389183 -8.654643 0
-27.188284 59.579575 -11.357693 0
-33.625149 57.449970 -10.670259 0
-22.413809 63.294914 -8.608978 0
-24.119070 56.567257 -10.039249 0
-20.671864 59.184799 -6.733111 0
-26.862148 54.618736 -10.968005 0
-29.289211 53.029484 -11.004013 0
-32.237347 52.467869 -10.937696 0
-36.172798 52.300900 -7.483482 0
-26.710514 51.690243 -9.699374 0
-4.338542 55.755741 -9.133296 0
-21.160866 54.403603 -6.606140 0
-28.658422 48.907589 -9.697797 0
-24.958982 50.645622 -5.861486 0
-33.593796 48.706551 -10.756498 0
-9.250256 46.252018 -8.384416 0
-42.757442 47.556637 -9.735110 0
-38.875740 46.575905 -10.114676 0
-37.462055 44.594231 -8.457910 0
-30.152405 44.359539 -9.011024 0
-22.460878 39.655182 -9.143248 0
-2.009377 40.945274 -9.826022 0
-49.470032 29.126257 -9.577785 0
-48.259277 32.432549 -6.820900 0
-41.195408 31.581320 -8.309362 0
-20.555206 33.198120 -8.046008 0
-47.957520 23.916176 -9.129843 0
-34.514580 30.226177 -6.375450 0
-38.414722 28.911045 -5.481581 0
-40.131752 27.061108 -7.053085 0
-44.636509 18.596304 -10.275403 0
-37.504391 19.778316 -7.171535 0
-50.736088 11.254838 -9.139603 0
-4.832895 5.419404 -8.218138 0
-44.418083 -0.215520 -7.226677 0
-50.406555 -2.662747 -9.588129 0
-3.817397 4.017736 -4.957321 0
-4.206039 0.803622 -3.416458 0
-60.534107 -9.014358 -10.865418 0
-47.551697 -13.595573 -7.306173 0
-6.400712 -11.458977 -3.617938 0
-53.787655 -14.641341 -9.328140 0
-66.683250 -17.551861 -11.517773 0
-25.600258 -19.714647 -11.024005 0
-66.520226 -20.898638 -12.517906 0
-56.821960 -28.171579 -9.150143 0
-65.737450 -31.219662 -10.883300 0
-63.799877 -27.459984 -8.037578 0
-60.781807 -27.354250 -6.798042 0
-59.677876 -27.218994 -11.350158 0
-33.452248 -25.215904 -10.944489 0
-34.556717 -27.345520 -9.084812 0
-31.812397 -30.379419 -11.033145 0
-23.550631 -34.822514 -9.974302 0
-28.241844 -36.852768 -10.624271 0
-69.195114 -35.368786 -9.238133 0
-70.421257 -39.181999 -11.569157 0
-71.132263 -39.341263 -8.738516 0
-69.289261 -37.677910 -6.535378 0
-58.662785 -42.725586 -9.438207 0
-60.879543 -48.650043 -12.742095 0
-18.490864 -48.067326 -10.236861 0
-22.557396 -51.296818 -11.027229 0
-41.493908 -49.796757 -9.425179 0
-24.422421 -54.840900 -11.574563 0
-44.764675 -53.886005 -10.201282 0
-41.221786 -52.552799 -8.371317 0
-40.520714 -60.146172 -7.632993 0
-25.843449 -62.890156 -12.078572 0
-49.124241 -62.737461 -12.739895 0
-44.674232 -64.221008 -10.374575 0
-43.622219 -69.937180 -10.350354 0
-52.209312 -73.425102 -11.802970 0
-43.625042 -73.268166 -11.418056 0
-50.879951 -75.900925 -10.390198 0
-49.333149 -78.645462 -12.826871 0
-46.957554 -80.695885 -11.918426 0
-40.263290 -78.323692 -11.885269 0
-19.402353 -85.664352 -11.446169 0
-9.472763 -87.562393 -10.306055 0
-6.503594 -86.373177 -12.338410 0
-12.921760 -96.065865 -10.518997 0
-0.248092 -95.229851 -13.337384 0
-30.428734 -96.725548 -11.821168 0
-4.056429 -101.112656 -10.139966 0
-19.162283 -104.605965 -11.122548 0
-17.407511 64.224670 -4.509478 0
-26.973164 64.062500 -6.022331 0
-29.042208 61.263145 -6.244018 0
-38.028030 58.850853 -4.096761 0
-38.825287 56.075500 -7.408835 0
-42.478767 51.280087 -8.085214 0
-38.771912 50.736771 -9.802053 0
-36.970097 47.791260 -7.993371 0
-34.773609 49.017712 -6.308080 0
-34.712929 42.880230 -6.299134 0
-29.216822 41.069210 -5.400886 0
-25.227732 40.829468 -6.992153 0
-25.451105 44.148945 -5.784185 0
-5.236501 42.458252 -9.516729 0
-2.024601 43.906128 -8.591537 0
-2.886819 40.001846 -7.104875 0
-32.878544 34.882492 -5.892878 0
-26.609009 33.778919 -4.701675 0
-23.136206 37.930374 -6.758461 0
-50.373669 26.585764 -8.157808 0
-3.311580 24.004938 -5.892833 0
-43.293781 15.553907 -8.135370 0
-0.769822 18.708996 -7.166338 0
-1.597291 12.496960 -8.868661 0
-50.901699 7.741513 -7.324063 0
-40.455002 8.481783 -9.919769 0
-2.444261 8.838461 -5.517438 0
-47.425152 1.875809 -6.475357 0
-40.243858 -3.424372 -10.431213 0
-5.055419 -2.789472 -3.682093 0
-2.721013 2.019333 0.270601 0
-48.170052 -6.955868 -11.351559 0
-65.600563 -10.893831 -7.620101 0
-7.802934 -15.108943 -4.313805 0
-64.509888 -20.040668 -10.181103 0
-18.102922 -23.112644 -7.759414 0
-22.547543 -21.324919 -7.583965 0
-27.383320 -23.864412 -7.974508 0
-12.556544 -20.885439 -6.220345 0
-15.343100 -22.901703 -6.371723 0
-19.448620 -27.170433 -8.563540 0
-17.079525 -35.665428 -9.154601 0
-25.103600 -39.973396 -11.001167 0
-70.786858 -42.311440 -10.111341 0
-63.112598 -43.107246 -9.473784 0
-61.464233 -40.672749 -10.128009 0
-30.695028 -39.504482 -8.851265 0
-28.509647 -43.119160 -8.751280 0
-23.930328 -42.645714 -8.647893 0
-17.703325 -44.733807 -10.695383 0
-66.670273 -45.377213 -11.827397 0
-70.400726 -45.418331 -10.600478 0
-67.766777 -48.727577 -12.944749 0
-57.702385 -57.328480 -8.067636 0
-24.779867 -72.742996 -9.546210 0
-36.389179 -72.628883 -7.776258 0
-39.986225 -80.334724 -7.041528 0
-42.855366 -85.624924 -6.869795 0
-24.441654 -78.467636 -8.906365 0
-14.828038 -81.669357 -15.345363 0
-19.706808 -80.693481 -11.803961 0
-17.424124 -78.547134 -12.033113 0
-11.160453 -80.183113 -10.812991 0
-15.101369 -77.982880 -8.063493 0
-37.898060 -86.707878 -11.479114 0
-30.766090 -83.718979 -12.364119 0
-34.649193 -83.285500 -12.111306 0
-37.416214 -90.888268 -12.025767 0
-12.889941 -85.480194 -11.579082 0
-15.409950 -87.580330 -10.881424 0
-1.539718 -89.103935 -10.858096 0
-6.365757 -103.498062 -11.041508 0
-6.911527 69.204247 -2.945514 0
-23.849991 63.331341 -5.205027 0
-21.271870 64.865753 -4.696821 0
-9.325955 61.301624 -7.456285 0
-7.678531 64.278839 -5.804089 0
-2.388414 61.299000 -4.067868 0
-34.688259 58.421680 -4.287423 0
-21.255838 49.938854 -6.007515 0
-40.434696 53.010330 -3.034057 0
-24.239624 46.588997 -8.014434 0
-8.408646 50.352417 -6.790893 0
-27.343449 46.333874 -4.629689 0
-23.397865 46.481991 -5.034099 0
-3.804545 47.260803 -7.185630 0
-5.239112 33.713097 -9.293786 0
-49.897995 35.359577 -8.692225 0
-39.084785 32.285999 -5.512896 0
-41.825222 30.815104 -5.011407 0
-43.164570 28.128847 -4.192780 0
-8.639429 30.913900 -8.751790 0
-42.338963 24.581968 -4.303663 0
-44.054199 22.496038 -7.685429 0
-28.402285 20.727922 -7.297990 0
-31.502899 20.413986 -6.446568 0
-34.049339 21.816376 -4.031243 0
-35.969311 16.635855 -6.961312 0
-38.980774 10.352782 -8.039477 0
-36.904819 10.795020 -5.510351 0
-42.208809 5.475090 -7.963672 0
-55.333717 -5.113019 -9.198053 0
-51.654816 -8.067366 -10.750451 0
-56.685524 -7.817307 -7.020992 0
-51.919086 -11.839453 -6.467531 0
-66.913834 -15.312224 -8.835936 0
-10.016551 -19.522369 -4.698848 0
-4.816812 -12.062546 -0.467118 0
-59.310360 -25.136028 -8.697416 0
-30.603338 -26.446922 -8.313157 0
-29.531097 -46.195629 -7.252075 0
-23.404396 -45.637314 -6.836824 0
-32.405300 -42.948330 -7.023411 0
-70.469528 -48.249508 -8.980354 0
-69.214142 -51.306896 -11.058146 0
-57.226704 -47.275604 -11.020981 0
-63.962051 -48.496605 -11.216356 0
-59.206676 -50.728298 -9.379487 0
-55.053490 -50.623352 -11.296475 0
-65.575142 -53.853813 -12.166661 0
-67.624718 -54.466125 -8.395369 0
-64.833000 -56.444622 -9.137351 0
-54.397778 -54.050404 -8.376598 0
-61.417526 -60.059090 -9.452798 0
-40.627796 -63.434868 -10.967724 0
-26.436035 -62.061905 -7.623957 0
-59.341900 -66.260384 -10.629286 0
-59.057796 -63.791000 -6.897109 0
-40.841324 -69.608788 -8.015215 0
-42.177086 -64.354637 -8.703094 0
-56.908276 -67.802864 -8.604768 0
-38.108780 -67.935432 -7.086068 0
-39.946564 -66.526932 -10.358013 0
-41.738388 -74.872261 -9.141118 0
-24.400476 -75.714005 -10.192391 0
-16.952255 -84.998566 -8.497851 0
-12.680270 -83.880623 -7.932518 0
-21.910028 -82.274399 -9.704311 0
-7.099305 -83.012833 -10.902957 0
-14.762488 -86.892609 -6.761258 0
-8.174826 -92.344238 -8.592673 0
-9.400249 -91.917351 -11.226015 0
1.576941 -94.980270 -9.781984 0
1.442370 -91.921844 -7.131920 0
-27.814329 -98.881325 -9.321671 0
-24.381231 -102.354980 -9.875419 0
-4.033638 69.552902 -3.242242 0
-28.247650 62.372849 -2.249462 0
-28.201256 55.852627 -6.584809 0
-13.362622 58.229290 -4.994292 0
-10.239465 60.949512 -4.458963 0
-7.728930 55.643082 -4.517460 0
-41.084122 56.184883 -2.775691 0
-39.253448 50.496002 -4.026103 0
-39.376728 46.718197 -4.433610 0
-2.052116 45.055840 -5.537718 0
-45.694832 37.254257 -5.666163 0
-42.720474 38.350769 -5.690576 0
-52.207535 34.070179 -6.074589 0
-51.863689 37.426830 -6.011509 0
-50.001907 40.967922 -5.247396 0
-9.714783 36.210850 -7.558654 0
-35.676640 32.806087 -4.647554 0
-31.015678 32.452950 -5.336939 0
-10.901387 31.573298 -5.438374 0
-8.706852 25.285473 -6.635757 0
-51.911587 22.136312 -4.124426 0
-44.844563 22.012943 -3.714967 0
-48.432850 21.991138 -6.714874 0
-47.303318 16.326155 -4.275984 0
-37.887180 14.570565 -5.793977 0
-56.127434 9.551312 -6.005285 0
-42.111530 11.168381 -5.812129 0
-39.640629 2.031118 -4.294413 0
-52.834438 -0.492640 -6.594516 0
-39.705391 -5.035631 -7.666664 0
-60.212990 -11.514405 -8.284851 0
-3.678069 -3.739969 0.044848 0
-7.080440 -18.931589 -0.273518 0
-61.071590 -23.203659 -7.048193 0
-17.763851 -25.803268 -4.738606 0
-69.430611 -28.185629 -7.166154 0
-35.361248 -30.459833 -8.829849 0
-62.854301 -33.423241 -8.977785 0
-55.700333 -45.599537 -9.111011 0
-52.518555 -46.816277 -8.893981 0
-49.815933 -51.801239 -4.686001 0
-50.870434 -49.371494 -7.778393 0
-59.223747 -55.127743 -4.821173 0
-43.593758 -55.757301 -7.846471 0
-25.036039 -50.239761 -8.336859 0
-25.707329 -56.517254 -9.296965 0
-23.295420 -65.211197 -9.467431 0
-21.966476 -60.131733 -9.415767 0
-21.410803 -62.501316 -11.568003 0
-19.937092 -57.833870 -10.256730 0
-38.854801 -64.131187 -8.381365 0
-17.618633 -65.036781 -7.754833 0
-21.006390 -66.734543 -11.538875 0
-17.690720 -60.740437 -8.973907 0
-14.106590 -58.566811 -5.266497 0
-27.014294 -65.965462 -9.203986 0
-52.678810 -70.930336 -9.609212 0
-38.469227 -75.907722 -6.673909 0
-42.453602 -79.371887 -8.831717 0
-24.338739 -75.807426 -6.647287 0
-20.064335 -76.507256 -11.771907 0
-21.060144 -71.595642 -11.265012 0
-16.561796 -75.202507 -10.674767 0
-21.377905 -78.061104 -9.678305 0
-31.154579 -81.257790 -8.276493 0
-35.420681 -84.872192 -7.212916 0
-35.899113 -89.126724 -8.936210 0
-19.709440 -91.118935 -10.308798 0
-18.888206 -90.216698 -6.757854 0
-2.376939 -90.868874 -5.698471 0
-5.196100 -96.186035 -8.283505 0
-9.838938 64.054527 -3.136798 0
-17.172550 60.395126 -4.094007 0
-4.095389 51.086502 -6.099689 0
-2.635339 49.170376 -3.452977 0
-6.090552 41.760704 -5.122771 0
-52.890106 35.706051 -3.008617 0
-50.989571 30.923357 -5.758399 0
-51.883587 27.785250 -5.009349 0
-43.637722 14.583435 -4.684040 0
-28.724558 18.170021 -1.681682 0
-54.125443 8.885201 -3.447415 0
-0.530486 14.587629 -5.035586 0
-43.945881 8.053055 -6.398039 0
-57.391788 1.805502 -3.836131 0
-49.536522 4.384693 -5.247860 0
-51.423779 5.237208 -2.379713 0
-47.075478 -1.270853 -5.604249 0
-55.607620 -2.741424 -4.089746 0
-43.770752 -4.120617 -7.857530 0
-56.606117 -4.377174 -6.639966 0
-43.420345 -7.146552 -7.537687 0
-59.254154 -6.884698 -5.932223 0
-62.472538 -12.382123 -5.764339 0
-58.210724 -14.052508 -7.691115 0
-66.876595 -13.616975 -5.879053 0
-47.377693 -18.367094 -4.935282 0
-62.622734 -18.699978 -7.789358 0
-66.482628 -16.389799 -4.301985 0
-68.122894 -23.756378 -8.260329 0
-64.242271 -24.608889 -7.536724 0
-37.171986 -32.085861 -6.064250 0
-28.516237 -33.280754 -6.894076 0
-18.722412 -30.605177 -6.099969 0
-65.327370 -32.840385 -7.338170 0
-33.425812 -32.896481 -8.579227 0
-64.430107 -38.969700 -4.613540 0
-60.863846 -35.353165 -6.979984 0
-20.050900 -37.090412 -8.067770 0
-23.152096 -37.278378 -8.433697 0
-14.989771 -34.982113 -6.496957 0
-14.813121 -31.896572 -4.673263 0
-71.151253 -41.888882 -6.627797 0
-70.600212 -44.593204 -4.028842 0
-68.204140 -51.633472 -7.904037 0
-29.567989 -53.392036 -7.855607 0
-22.261547 -57.222923 -8.077470 0
-19.615509 -54.559658 -9.191878 0
-17.013210 -54.822037 -7.047137 0
-23.471123 -59.583981 -5.757228 0
-24.322157 -67.905853 -7.685148 0
-29.246920 -70.955544 -8.866574 0
-18.300297 -68.677902 -10.379945 0
-16.295950 -70.779373 -8.810184 0
-47.662014 -72.830986 -8.282257 0
-20.595854 -72.611725 -5.245978 0
-13.326344 -73.814041 -8.247603 0
-50.916485 -79.305862 -6.423328 0
-11.380544 -77.746056 -9.204640 0
-7.164011 -76.181786 -7.175052 0
-5.176568 -81.885895 -8.534977 0
-38.993435 -87.875771 -7.539434 0
-20.865917 -83.810944 -5.750114 0
-31.918896 -85.322113 -7.400407 0
-33.002045 -88.343147 -4.267537 0
-7.000564 -87.503754 -8.553504 0
-3.874989 -83.030396 -8.795836 0
-7.442543 -87.639320 -4.141643 0
-4.139375 -83.899200 -5.298865 0
-0.626307 -83.495369 -7.923140 0
-10.654690 -90.835983 -5.087049 0
-29.665409 -94.089088 -10.292048 0
-10.794663 -102.172539 -8.628993 0
-2.587303 67.256584 -2.115132 0
-4.048976 69.164291 1.233139 0
-23.551830 60.990528 -2.927069 0
-4.813675 65.532661 -0.803288 0
-6.902947 60.719498 -0.943110 0
-34.242073 53.554581 -1.902688 0
-31.360294 51.860035 -2.822932 0
-28.006851 52.752998 -1.816715 0
-2.939121 53.909611 -3.748627 0
-40.574299 44.091446 -5.120917 0
-12.867853 39.046955 -4.271242 0
-10.823032 36.505959 -2.909040 0
-22.871767 33.829060 -4.886392 0
-54.075092 28.898132 -2.772862 0
-50.665199 19.033123 -3.056707 0
-1.360639 20.882612 -5.301282 0
-29.180901 22.269794 -4.062868 0
-0.487384 17.679480 -0.879899 0
-1.765399 20.764849 -2.145287 0
-38.069233 19.882711 -4.237107 0
-37.763031 15.910320 -1.836665 0
-54.921497 4.488911 -1.066083 0
-40.368893 -3.695470 -5.050491 0
-47.647408 -6.234768 -5.768022 0
-2.483412 5.336838 -1.500844 0
-44.937283 -9.444980 -6.183006 0
-40.567307 -9.197813 -6.272673 0
-54.578754 -12.097290 -3.721276 0
-64.851830 -13.709777 -3.358400 0
-56.101799 -19.647978 -6.654711 0
-48.375267 -19.361330 -7.918990 0
-53.215931 -20.683718 -6.942026 0
-50.354141 -21.791218 -6.612209 0
-9.879030 -22.477268 -1.655640 0
-65.963821 -20.480932 -5.917400 0
-12.652299 -25.853977 -1.399337 0
-69.016884 -33.251785 -4.955724 0
-35.631523 -34.947754 -5.222513 0
-32.141205 -36.967579 -4.724167 0
-12.755910 -34.065475 -4.324695 0
-21.001314 -39.791393 -5.659868 0
-25.742254 -39.218426 -7.535602 0
-27.528292 -41.213322 -5.933861 0
-69.696449 -48.523746 -5.926141 0
-55.125874 -50.024261 -7.245616 0
-56.679543 -53.248631 -5.295744 0
-22.001242 -53.793278 -7.380461 0
-24.414787 -55.014011 -5.851430 0
-29.573978 -57.103806 -6.789664 0
-53.369633 -68.129066 -6.994390 0
-25.176571 -72.752274 -6.553582 0
-29.416889 -69.662453 -4.874375 0
-20.592403 -76.372963 -5.131609 0
-18.614670 -79.661850 -4.580385 0
-23.210703 -79.397087 -6.091614 0
-4.239868 -79.433479 -6.656366 0
-46.713650 -82.298286 -6.471344 0
0.916303 -87.662888 -7.415329 0
-34.122765 -91.314201 -7.624098 0
-6.027060 -100.404686 -7.031229 0
-18.507063 -101.249390 -9.328659 0
-30.283195 58.733490 -2.327389 0
-15.838289 57.353783 -3.646159 0
-16.370020 59.699322 0.359298 0
-2.016613 57.303608 -0.726208 0
-28.543516 49.723122 -0.903170 0
-38.644104 41.771709 -1.809074 0
-42.623871 40.377785 -1.575058 0
-9.479643 45.325253 -2.835222 0
-8.068048 29.268511 -4.956466 0
-52.032005 25.450045 -1.923950 0
-26.829161 24.328341 -1.648478 0
-2.670578 24.257189 -1.473587 0
-38.438763 22.391699 -1.082011 0
-34.589054 19.561884 -1.410964 0
-1.045274 12.412172 0.329675 0
-43.292797 11.973210 -2.456352 0
-43.950077 8.671042 -1.769212 0
-43.372993 4.869760 -4.234890 0
-42.669399 -3.793741 -2.192486 0
-39.101025 -6.840626 -4.550353 0
-50.428223 -7.339535 -1.577221 0
-48.360615 -11.513971 -4.039596 0
-51.188023 -15.582589 -4.255402 0
-58.850773 -18.713524 -5.918789 0
-50.587154 -23.459040 -1.815464 0
-46.003967 -22.235062 -2.417432 0
-25.519436 -26.755335 -5.898461 0
-67.704552 -20.005482 -2.777199 0
-70.499916 -27.887094 -0.953094 0
-69.228790 -23.233747 0.825504 0
-27.885366 -29.269302 -5.009320 0
-33.696575 -31.209057 -5.972181 0
-30.027988 -31.236416 -4.930575 0
-23.694855 -34.713116 -3.917773 0
-16.095585 -37.554897 -4.780426 0
-29.206404 -43.267731 -4.402308 0
-25.929655 -43.640995 -3.439808 0
-30.831934 -50.694191 -5.886240 0
-66.980072 -53.198788 -2.592315 0
-21.573666 -51.060490 -5.298697 0
-62.369678 -59.622765 -4.293381 0
-65.030441 -58.155567 -5.905616 0
-27.944056 -64.719498 -4.175378 0
-23.284672 -63.707481 -3.842315 0
-56.255928 -65.502831 -6.807302 0
-24.394781 -68.030716 -3.992582 0
-13.687222 -68.622864 -6.325161 0
-22.221663 -71.099762 -3.242709 0
-52.466190 -74.910942 -6.406343 0
-13.919433 -77.074806 -3.634123 0
-11.972729 -77.914253 -5.870944 0
-2.258200 -79.483437 -4.723615 0
-17.844688 -87.456505 -2.747740 0
-9.249923 -85.512894 -5.172010 0
-30.910202 -91.201874 -6.834702 0
-27.603996 -91.790421 -6.804652 0
-25.034018 -97.115738 -6.569177 0
0.555785 -95.250984 -6.214076 0
-5.904456 -94.400116 -4.581049 0
-20.250462 -98.883415 -8.571339 0
-13.182098 -100.122894 -8.552613 0
-20.799944 61.993984 -3.116073 0
-19.203121 57.505730 -2.351897 0
-40.050301 56.695896 0.392389 0
-43.153549 53.543152 -1.103818 0
-46.258900 51.461243 -2.500990 0
-44.683468 49.167786 -4.324713 0
-47.780163 48.314529 -1.324108 0
-45.309795 46.312756 -2.118758 0
-48.673485 42.840225 -2.555503 0
-51.791336 41.306980 -0.646633 0
-2.643931 35.175510 -4.298362 0
-6.468282 37.172783 -3.151245 0
-3.615807 38.131985 -2.009583 0
-3.067841 31.455196 -3.537204 0
-3.251958 27.476337 -4.306622 0
-4.956341 27.431107 -1.128656 0
-5.530015 31.149883 -0.459138 0
-29.878559 25.346176 -3.368496 0
-36.122982 11.291604 -1.561934 0
-43.446526 2.342657 -1.501030 0
-51.076096 0.695665 -1.023036 0
-50.798397 -3.665546 -1.564212 0
-59.939053 -2.699573 -3.241000 0
-61.434746 -7.148053 -3.404055 0
-58.985600 -10.673844 -1.547011 0
-37.713764 -11.445938 -2.436013 0
-43.014297 -11.417693 -4.736666 0
-61.947273 -15.338669 -4.594095 0
-57.182331 -20.451168 -2.369897 0
-48.879532 -25.925291 0.603723 0
-21.194838 -27.306009 -3.881954 0
-21.116772 -32.589172 -4.675508 0
-62.368660 -36.133221 -3.141248 0
-68.262810 -41.502987 -3.390414 0
-11.557721 -39.290695 -1.975852 0
-15.967198 -43.326653 -6.817997 0
-15.937532 -40.817066 -3.890481 0
-32.641655 -45.597187 -4.615588 0
-12.850130 -48.582115 -5.116003 0
-16.162870 -49.643707 -5.962080 0
-11.705771 -44.537205 -4.004196 0
-65.290237 -48.469872 -6.676893 0
-68.711823 -48.143288 -1.849776 0
-61.927162 -48.481232 -3.209946 0
-62.945007 -46.699303 -5.382249 0
-32.798809 -49.989635 -3.555613 0
-50.869003 -54.545990 -1.736784 0
-50.466213 -55.670383 -4.915377 0
-52.671562 -58.263084 -5.079455 0
-31.496628 -53.081860 -2.862451 0
-25.398012 -51.169624 -4.675583 0
-18.995644 -54.752983 -4.875646 0
-12.907765 -64.788330 -4.684101 0
-53.879677 -62.355133 -5.317812 0
-49.585346 -68.485260 -6.196358 0
-46.272564 -71.002747 -5.658743 0
-24.974342 -73.600395 -2.887276 0
-9.599163 -72.148445 -5.940369 0
-50.087582 -70.694206 -2.261195 0
-20.931221 -77.840561 -1.892495 0
-31.138823 -80.283768 -4.523350 0
-35.344242 -83.528564 -4.597385 0
-5.435026 -80.313103 -2.859872 0
-17.086164 -84.872505 -4.805171 0
-2.906947 -85.738762 -0.478159 0
-24.828035 -89.127029 -3.187016 0
-22.506201 -94.001137 -3.470917 0
-25.060234 -92.654938 -5.371045 0
-15.865506 -97.177002 -5.093455 0
-9.698924 -100.106308 -5.237644 0
-16.284363 67.729759 -0.712545 0
-12.109344 66.891396 -2.535597 0
-11.612597 69.383354 -0.330303 0
-31.690563 58.461971 0.475135 0
-24.094240 57.930492 -1.575512 0
-23.320381 57.280403 1.663610 0
-30.690145 54.655106 0.803789 0
-31.871841 48.206459 -0.759578 0
-37.432858 53.702785 0.755996 0
-46.147106 51.985050 1.089409 0
-47.183823 46.069916 0.783195 0
-5.412290 50.719269 -1.882800 0
-11.022622 50.040634 -2.135461 0
-12.452572 47.271023 -2.127063 0
-13.922288 43.696217 -1.195345 0
-12.345857 40.466782 0.374775 0
-6.509019 39.693745 -1.627110 0
-4.417020 42.455364 -0.070743 0
-29.008295 28.810570 -0.477032 0
-38.159359 16.964516 0.838164 0
-60.561859 0.341032 -0.488954 0
-57.804695 1.981257 -0.836392 0
-40.469135 -13.599045 -3.768435 0
-44.688107 -14.284054 -1.895373 0
-65.137321 -15.932203 -1.170873 0
-61.189987 -19.650688 -1.076840 0
-4.892200 -15.418053 2.400130 0
-7.780922 -22.265574 1.507528 0
-18.190004 -29.467421 -1.816612 0
-15.051675 -29.328520 0.046570 0
-24.304743 -29.764927 -3.471395 0
-16.189007 -36.801044 -0.096585 0
-27.512564 -36.377121 -3.946633 0
-19.651209 -41.580139 -3.001808 0
-22.336725 -43.656876 -2.886019 0
-9.638128 -42.663967 -1.024994 0
-19.887173 -48.043602 -2.986800 0
-10.533169 -48.462440 -1.616916 0
-14.600332 -52.455265 -4.418001 0
-11.988505 -50.989437 -2.642795 0
-12.932848 -55.316330 -2.980712 0
-11.517744 -54.542862 0.659107 0
-10.084622 -50.912449 1.447045 0
-30.023914 -56.390453 -2.585323 0
-20.091103 -56.895233 -1.612287 0
-29.945047 -59.939644 -2.519919 0
-10.751208 -62.867470 -2.651972 0
-51.310883 -65.514549 -5.754329 0
-47.356510 -66.474030 -4.747340 0
-15.697706 -67.919701 -2.813514 0
-42.830994 -68.812202 -2.983157 0
-13.482103 -71.076736 -1.042932 0
-7.870856 -74.076942 -3.024566 0
-52.614407 -74.261604 -2.335026 0
-47.636215 -79.672241 -5.005879 0
-18.959740 -82.826569 -2.924621 0
-9.727130 -86.954590 -1.952150 0
-7.890827 -97.166397 -4.603967 0
-14.495946 -102.313766 -5.901057 0
-1.041437 -101.502594 -7.758661 0
-4.239363 -100.755272 -3.570216 0
1.832257 -99.175133 -4.080846 0
-2.826821 -104.596581 -7.275599 0
-5.912628 -103.725174 -5.250935 0
-10.198911 -105.902916 -6.601518 0
-14.760685 -105.747375 -6.515400 0
-11.401045 -103.963615 -4.319893 0
-7.608980 -107.796913 -3.710720 0
-12.506677 -107.318558 -4.328045 0
-8.086501 69.128654 1.287874 0
-17.607132 67.599243 2.394107 0
-14.213354 65.424934 3.267307 0
-27.158154 57.971348 2.070846 0
-42.704491 50.157722 2.330400 0
-48.087238 49.432148 1.458352 0
-47.024384 52.112331 3.928605 0
-9.762005 53.965611 -0.836831 0
-15.507359 47.776737 0.524809 0
-43.692776 44.083538 1.695159 0
-54.507446 34.273659 1.230012 0
-5.900617 34.400272 0.148419 0
-34.825966 26.456114 -1.922182 0
-38.247887 25.215336 -0.220085 0
-32.044651 27.559553 -1.803726 0
-32.769547 29.112274 0.669167 0
-41.667171 19.524271 1.656635 0
-43.998791 17.991394 0.684671 0
-41.241138 7.007433 0.622473 0
-1.726565 6.425212 2.259659 0
-38.730652 0.990169 -1.480891 0
-63.049694 -4.685521 -0.440506 0
-2.267085 0.243419 3.465445 0
-2.511180 -5.021524 5.526118 0
-66.313110 -18.313721 0.912350 0
-55.404762 -15.184422 -1.715845 0
-50.709705 -17.935986 -2.391926 0
-56.230751 -23.418686 -1.654009 0
-70.753998 -32.853844 -0.070895 0
-27.534653 -33.518959 -1.545396 0
-68.113663 -34.108746 -2.220530 0
-30.881334 -40.088070 -1.196832 0
-33.446861 -37.613178 -1.023269 0
-26.293633 -46.805851 -0.940239 0
-70.025841 -43.005497 -0.107020 0
-61.305141 -43.351452 -1.863306 0
-64.581413 -51.513470 -0.379309 0
-21.630459 -50.292435 -1.141966 0
-29.145651 -49.592789 -2.462898 0
-47.387897 -54.722145 -2.713664 0
-59.754715 -61.532089 -2.798309 0
-50.946140 -60.943703 -4.418370 0
-46.331356 -62.297752 -3.710876 0
-22.148470 -74.574173 -1.439931 0
-49.239544 -77.220451 -3.630671 0
-10.676798 -79.369972 -3.340658 0
-12.457766 -80.166702 -1.116912 0
-35.227295 -80.409523 -2.134625 0
-46.067307 -76.155403 -3.549630 0
-43.134968 -80.604858 -3.662486 0
-2.672342 -82.367920 -1.654890 0
0.891670 -85.237000 -3.533536 0
-30.554274 -87.143753 -2.492405 0
1.883191 -91.902534 -4.094673 0
3.013274 -91.310181 0.306930 0
-32.791462 -95.902321 -7.732832 0
-31.320929 -92.376450 -3.288758 0
-27.360735 -91.148727 -2.331907 0
-30.566763 -97.744476 -6.262347 0
-1.396685 -95.404289 -3.289855 0
-32.702644 -98.043472 -2.995927 0
-37.318062 -94.745201 -4.366701 0
-25.794123 -96.475281 -1.653190 0
-26.391111 -99.993401 -2.605090 0
-22.488443 -98.169342 -4.710564 0
-20.919113 -95.323715 0.401868 0
-18.416943 -100.072220 -2.469032 0
-12.251472 -99.687271 -3.691487 0
-8.749132 -102.662323 -3.308264 0
-14.095872 -102.814064 -2.196096 0
-4.115973 -106.548218 -5.034222 0
-17.644363 -107.082024 -2.574655 0
-19.990780 -105.549400 -5.283419 0
-14.577319 -107.538574 -1.423066 0
-10.486667 64.592186 4.105408 0
-6.663127 66.407875 3.300356 0
-2.587975 64.999390 2.731076 0
-2.164077 61.842144 0.914875 0
-32.690979 55.071877 2.926244 0
-5.442271 55.808540 0.865808 0
-34.482018 45.977612 1.660572 0
-14.572726 53.450317 4.617896 0
-30.626932 46.071198 1.993221 0
-41.801819 41.847225 2.548979 0
-50.533348 43.366779 3.447683 0
-47.232056 40.128857 3.265330 0
-53.323944 41.076183 3.177331 0
-41.723156 41.006897 6.125850 0
-7.245744 43.636486 1.284856 0
-2.874535 41.359600 -0.194488 0
-5.319912 40.676815 3.402573 0
-51.016090 30.650808 -0.996010 0
-28.633821 29.053720 5.217869 0
-47.830502 22.484234 -0.869650 0
-35.677921 14.179066 3.177551 0
-43.860229 12.514678 2.524346 0
-40.199535 13.595362 2.510313 0
-43.062935 9.656801 1.072941 0
-43.884731 0.719527 1.567281 0
-40.463875 -2.722274 -0.139257 0
-1.686422 -0.684705 7.333375 0
-42.913582 -8.675765 0.179296 0
-50.803120 -12.051110 -0.254891 0
-44.893028 -20.050093 3.461815 0
-39.206234 -20.911884 0.795262 0
-44.310566 -16.469685 0.409600 0
-39.720348 -16.701944 -1.802735 0
-52.112465 -13.872434 2.274742 0
-48.106125 -14.130033 -0.290671 0
-48.509602 -16.387491 2.458875 0
-3.130234 -9.138929 4.582320 0
-53.480408 -17.553818 -0.194288 0
-70.890938 -27.859282 2.284805 0
-10.765225 -27.175905 2.389322 0
-19.861418 -36.724995 -1.487437 0
-67.290276 -35.693428 0.385805 0
-24.720480 -37.243923 -1.352376 0
-57.787697 -43.756130 -2.957112 0
-58.529957 -46.915203 -2.415327 0
-66.183182 -46.834511 0.258337 0
-28.098150 -52.400883 -3.325927 0
-16.369230 -54.565517 -2.727107 0
-62.394207 -55.137035 1.642143 0
-62.935982 -58.428886 2.548398 0
-47.985058 -58.503006 -3.185440 0
-17.311876 -61.283627 -1.207635 0
-43.363537 -64.497314 -2.644318 0
-13.932732 -63.684643 0.933053 0
-7.522412 -68.852837 -2.420035 0
-26.186365 -70.090614 -2.516032 0
0.073212 -79.603134 -1.841432 0
-39.680176 -82.090782 -3.626944 0
0.460928 -87.444504 -0.581859 0
-39.848217 -91.377190 -5.799226 0
-39.403973 -87.110764 -3.028313 0
-36.770645 -89.144447 -3.235427 0
-3.824303 -90.488121 -2.013220 0
-34.679283 -91.905693 -1.489100 0
2.854424 -95.167412 -1.991696 0
-28.335016 -102.328476 -1.718787 0
-23.306002 -101.781433 -5.431040 0
-24.100554 -103.797607 -1.849203 0
-6.963014 -99.714180 -1.506734 0
-0.422103 -104.160042 -2.325409 0
-19.503252 -106.360008 2.362586 0
-11.933300 -107.510620 3.604799 0
-10.631966 -107.859024 -1.443885 0
-7.566647 -107.156212 -0.597991 0
-20.812002 63.362579 1.036328 0
-20.387802 66.648918 1.197726 0
-2.165773 60.855232 3.821253 0
-32.949322 59.886002 5.098936 0
-9.827810 56.302223 3.234108 0
-30.659668 51.030865 3.913925 0
-48.132355 49.629639 5.308232 0
-11.887558 44.468933 2.838627 0
-2.037550 43.777569 1.318128 0
-45.625061 33.526623 0.307151 0
-47.094059 35.998901 3.948066 0
-47.814068 31.769512 -1.387061 0
-41.725006 34.669308 1.358238 0
-42.872860 30.024761 1.186643 0
-46.894642 27.955198 -0.396851 0
-50.501286 33.972645 1.235294 0
-45.100769 25.108265 0.972093 0
-48.564266 25.440609 -0.628054 0
-29.009459 24.648029 2.065591 0
-41.408554 22.477337 4.242850 0
-2.771143 26.340700 3.731068 0
-1.995002 23.178503 5.412588 0
-30.124613 22.820765 -0.003097 0
-33.067299 23.028519 0.851638 0
-38.613499 18.558950 3.880987 0
-36.336273 21.112774 2.806720 0
-1.180310 11.620709 4.550192 0
-1.354816 7.829258 6.203846 0
-44.028652 -5.182890 0.606263 0
-63.092396 -8.010424 2.422399 0
-62.617451 -11.252326 2.293667 0
-41.571011 -11.493345 0.505742 0
-59.623486 -13.980950 1.798023 0
-49.734592 -20.234816 0.858003 0
-47.200214 -22.301699 0.518924 0
-5.450541 -19.253914 4.455871 0
-59.174641 -25.297239 -1.875683 0
-56.572556 -26.543249 -2.468284 0
-54.070045 -29.203144 -2.148983 0
-62.765663 -28.876190 -0.637000 0
-55.871597 -33.100613 -0.210368 0
-17.548481 -33.063351 0.893662 0
-50.963634 -32.460312 0.431206 0
-21.992172 -33.939426 0.557521 0
-30.437027 -37.820843 1.240179 0
-24.452768 -36.527557 3.874610 0
-19.191547 -39.163025 4.590727 0
-69.619675 -38.905628 -0.543496 0
-56.745872 -38.975185 -0.672312 0
-51.907898 -43.136852 -0.671683 0
-54.299980 -40.946125 -0.510288 0
-55.217876 -46.850407 -1.354614 0
-59.922009 -50.228771 -0.691567 0
-52.914909 -57.146538 -1.691161 0
-15.624505 -58.614811 -0.790091 0
-55.848476 -58.761108 -2.437906 0
-46.135090 -56.795971 -0.728508 0
-62.163406 -61.861835 3.027651 0
-59.108444 -66.385826 2.423017 0
-43.586571 -58.697166 -0.722361 0
-42.665791 -61.415104 -1.514145 0
-7.891126 -66.499466 -0.058713 0
-9.286768 -74.436958 1.985763 0
-50.901402 -73.562866 0.293946 0
-45.666115 -73.647919 -0.758758 0
-42.565796 -75.143951 -2.088320 0
-4.281237 -77.556274 -0.178590 0
-2.370933 -75.921318 -2.657401 0
-37.798473 -77.784096 -0.587471 0
-3.420062 -82.643219 2.465813 0
-42.160095 -89.502625 -3.092251 0
-42.950195 -84.785225 -0.839093 0
-43.281422 -88.278709 2.090708 0
-42.108456 -91.438515 0.074996 0
-2.327682 -89.251740 0.229040 0
-31.871845 -89.773849 1.276446 0
-25.084814 -93.669044 -1.110446 0
-2.282215 -97.089622 0.660788 0
-12.223550 -96.796463 -1.822386 0
2.675856 -101.446777 0.231443 0
-20.371975 -102.894402 0.706779 0
-4.169371 -106.399590 -0.544310 0
-19.990356 68.593750 5.110539 0
-24.855566 65.553352 4.727155 0
-24.586828 62.782372 2.492204 0
-30.168562 60.131649 2.787255 0
-3.597640 58.167023 7.106867 0
-29.841579 62.859238 5.215220 0
-39.033005 48.271770 2.314894 0
-11.609970 57.608887 6.818262 0
-44.158546 52.721695 3.578917 0
-15.187596 47.770279 4.474291 0
-8.774770 48.838341 1.915979 0
-1.069106 49.291710 3.045059 0
-7.385802 51.758022 3.528903 0
-55.516518 36.420742 5.125798 0
-5.357725 37.041161 4.047674 0
-38.581280 33.280849 2.111617 0
-34.911167 27.661951 5.867384 0
-38.607929 25.883072 4.994664 0
-3.130932 30.637932 3.527848 0
-4.459365 33.211014 2.937395 0
-1.452261 19.997643 4.873724 0
-1.281073 16.407038 6.778720 0
-1.740538 19.919798 9.548509 0
-41.091873 10.936908 4.745440 0
-54.758087 -0.187742 -0.199174 0
-44.710796 2.290654 4.183185 0
-57.413368 -5.920506 0.542339 0
-38.147068 -3.267904 2.654107 0
-38.717438 -5.987312 3.541228 0
-56.042423 -8.574016 1.370427 0
-43.947685 -12.679290 3.842664 0
-43.033829 -8.690374 4.320687 0
-38.782791 -17.525276 3.786919 0
-3.390119 -13.294137 6.775552 0
-65.374245 -22.779322 0.697401 0
-53.076691 -26.024097 0.956749 0
-23.723967 -39.168888 1.456335 0
-27.312384 -39.988125 3.538140 0
-13.285913 -39.095760 2.744948 0
-59.791458 -39.376244 -0.124936 0
-50.430664 -45.897198 0.660989 0
-55.615582 -62.066185 -2.111528 0
-53.035080 -60.553841 -1.466570 0
-13.023647 -59.100494 1.772148 0
-53.846264 -67.280350 -2.452958 0
-56.675781 -68.116074 -1.428295 0
-40.534672 -65.558296 -0.406059 0
-48.900669 -65.053558 -1.180451 0
-54.507751 -69.920761 0.395258 0
-10.708681 -65.579308 1.588539 0
-6.792065 -71.317207 0.834562 0
-41.883175 -73.217682 0.476568 0
-8.359644 -76.088737 -0.364574 0
-0.115747 -76.358070 1.733665 0
-2.207688 -72.580795 1.941130 0
-31.395092 -78.291595 2.076291 0
-28.048946 -84.895393 1.737993 0
-29.617744 -80.752174 -0.844922 0
1.174629 -88.630432 3.622657 0
-36.841808 -97.012253 -0.593649 0
-39.407345 -94.411331 0.889395 0
-8.823980 -93.885399 0.530500 0
-30.122253 -101.475616 1.964229 0
-46.529305 49.405220 11.464804 0
-46.204220 52.837006 7.047737 0
-46.633423 48.304176 7.608929 0
-28.752321 46.454334 5.928223 0
-3.440671 51.348145 3.060597 0
-15.028957 50.312283 6.966568 0
-12.161188 50.530983 5.889822 0
-9.156438 51.986008 6.252826 0
-12.178730 48.058247 3.736665 0
-44.976067 46.145905 4.331785 0
-32.220333 45.296001 5.181914 0
-35.147442 47.754490 4.896707 0
-2.177109 45.540047 5.259842 0
-1.730416 49.512882 8.863656 0
-4.329600 43.358299 4.957944 0
-40.766029 33.551636 4.776639 0
-33.033936 23.345747 6.378698 0
-38.026337 7.291677 2.800614 0
-43.394939 -2.514055 5.457942 0
-1.416137 4.021440 7.169895 0
-60.209068 -3.289105 0.756223 0
-60.577286 -6.133286 2.701545 0
-54.156296 -10.676137 2.258556 0
-56.461933 -15.341369 5.175117 0
-55.216415 -17.137196 2.756527 0
-40.621613 -22.796535 3.592503 0
-51.199039 -21.466818 3.963970 0
-56.098644 -27.846825 0.248145 0
-47.372387 -31.749571 4.128950 0
-53.596439 -30.469473 4.224990 0
-11.381160 -29.468834 4.140457 0
-13.719460 -33.232521 4.562698 0
-69.228104 -36.031406 2.737813 0
-9.805704 -41.711815 1.820835 0
-68.857780 -44.466919 2.268739 0
-54.598499 -49.597149 0.092055 0
-51.852180 -48.552773 0.797979 0
-57.796856 -53.188820 1.664542 0
-9.580698 -48.177158 4.324215 0
-49.763470 -58.416817 -0.585096 0
-46.365330 -60.204544 0.242005 0
-40.418392 -61.080090 1.353421 0
-50.527039 -67.358353 0.289853 0
-55.821957 -70.759064 4.745173 0
-43.580162 -68.017838 0.822601 0
-49.154945 -72.339912 2.632299 0
-46.014038 -69.697502 3.339154 0
-11.634906 -72.126617 2.903449 0
-4.441997 -69.067558 1.516572 0
-10.010252 -71.351723 5.656521 0
-38.613697 -74.564026 1.379357 0
-35.893314 -76.529236 2.713509 0
-10.181783 -81.332504 1.776858 0
1.015870 -82.171440 3.762718 0
0.881363 -82.110176 0.705604 0
0.396313 -79.980034 6.021978 0
-5.907722 -82.067062 -0.480307 0
0.501560 -85.349678 6.510562 0
-38.809330 -83.707863 -0.640181 0
-34.870621 -87.104408 -1.186592 0
-35.203022 -84.180031 -0.365558 0
-31.865213 -84.181152 1.474791 0
-5.487811 -90.737068 2.168350 0
-40.744446 -91.793411 2.785424 0
-38.397186 -93.094704 4.572249 0
4.072384 -96.309303 1.209054 0
2.723964 -98.484726 3.509596 0
-5.549736 -97.812027 0.442795 0
-0.290231 -103.749718 1.445471 0
-24.648540 -104.319000 1.693507 0
-16.335485 69.188515 6.076477 0
-6.506011 61.436031 5.640218 0
-31.344770 57.355545 5.833020 0
-7.297504 59.515751 9.570248 0
-43.597492 55.217552 5.054932 0
-36.794067 51.807495 5.579454 0
-38.827232 44.405552 5.008673 0
-5.565416 42.573879 7.528708 0
-52.802525 35.186039 5.466395 0
-44.067333 32.770588 4.649429 0
-36.468372 33.706341 4.313560 0
-27.619560 24.527914 5.981710 0
-26.045551 27.555122 6.532555 0
-2.066810 24.164377 8.500298 0
-35.293285 22.083715 8.506674 0
-38.431522 12.815029 6.412096 0
-1.291128 12.253209 7.869002 0
-43.587288 4.999413 4.542906 0
-68.756218 -23.844301 3.957725 0
-58.458771 -23.863220 2.278533 0
-55.187653 -22.167925 3.477492 0
-71.031036 -33.041142 6.323679 0
-68.660706 -28.779055 5.958699 0
-62.801502 -31.440004 2.578460 0
-63.473160 -32.946758 6.309698 0
-15.406925 -37.514595 4.941693 0
-69.929802 -37.471390 5.594498 0
-58.185772 -40.956650 3.379380 0
-64.969505 -39.965260 3.727691 0
-14.868461 -42.111332 0.525023 0
-68.627167 -43.195595 5.690676 0
-68.290871 -40.637894 10.067188 0
-10.725263 -44.766510 4.342800 0
-17.975010 -47.159576 2.231742 0
-14.398834 -45.588402 0.225559 0
-51.820499 -51.995483 3.479409 0
-44.655071 -63.715652 1.285232 0
-51.829620 -69.465317 1.881044 0
-53.762108 -73.193230 3.958212 0
-41.605278 -66.926483 2.683022 0
-7.051364 -77.252563 4.181145 0
-45.074623 -77.142365 0.409465 0
-44.465282 -82.070335 -0.776263 0
-49.708878 -79.175232 -0.470243 0
-48.392670 -83.036568 0.759111 0
-28.888887 -82.173676 2.517548 0
-39.852966 -79.460571 2.187875 0
-43.112236 -84.778969 3.458314 0
-35.928989 -80.862495 1.655551 0
-28.514898 -88.182205 3.073799 0
-37.664711 -95.762253 3.018709 0
-28.987070 -94.762512 1.395277 0
-28.932850 -100.464378 5.211268 0
-8.974585 -97.938202 -0.192751 0
-7.951616 -101.086128 2.039798 0
-7.296181 -103.611671 -0.832220 0
-18.853548 63.656338 6.793083 0
-10.802601 68.607529 6.139890 0
-29.378696 59.792763 6.389593 0
-14.631966 55.014919 8.810009 0
-39.124069 56.594494 6.309246 0
-42.433216 46.980312 7.096109 0
-31.294739 47.010006 7.375750 0
-52.434139 40.757652 7.218794 0
-49.560375 43.958130 6.673150 0
-45.519222 42.679508 7.230817 0
-54.392483 38.025639 7.455256 0
-55.723866 34.450111 10.328320 0
-52.747749 38.601265 11.244138 0
-2.494144 33.674038 5.454991 0
-32.035255 33.463413 8.685843 0
-35.439781 32.355820 8.908272 0
-2.470763 28.258781 9.250095 0
-48.897697 29.360626 3.393604 0
-53.902649 29.909452 5.428917 0
-49.696438 25.634048 3.368550 0
-49.424084 20.948610 3.071965 0
-51.725559 23.241615 7.917442 0
-55.408024 19.718576 4.474659 0
-52.335037 17.956970 3.400482 0
-45.870674 17.305416 7.875100 0
-51.455097 17.418606 7.981167 0
-35.836212 9.773935 6.416153 0
-43.461742 3.673448 7.200257 0
-61.998974 -7.593330 5.317976 0
-38.703617 -8.906890 4.842870 0
-54.043785 -9.120278 6.066979 0
-57.545143 -9.510022 9.484147 0
-62.850391 -8.925052 8.307589 0
-61.564728 -11.202102 9.738571 0
-49.519485 -12.376567 7.042746 0
-58.608528 -13.156594 6.004799 0
-54.134727 -19.187769 5.408088 0
-66.235268 -25.834623 2.831726 0
-38.134865 -22.935812 5.239635 0
-61.751087 -23.846842 2.953661 0
-60.006344 -21.101595 3.764295 0
-59.433323 -18.183002 5.832094 0
-58.832249 -29.355862 4.141386 0
-60.902908 -27.041573 3.295586 0
-8.829466 -26.964806 5.500742 0
-6.502311 -22.905819 6.125620 0
-55.351734 -31.603737 8.342796 0
-9.754352 -30.118423 7.442494 0
-59.690403 -33.363884 3.535438 0
-54.751938 -33.885201 5.042045 0
-23.621391 -40.811924 6.239260 0
-59.186909 -44.873081 1.426872 0
-53.246811 -45.779404 2.324637 0
-48.619160 -48.736435 3.702025 0
-14.522078 -46.140259 6.089856 0
-12.721360 -42.690472 4.441818 0
-17.252249 -50.933353 2.118872 0
-14.462205 -49.774132 2.327341 0
-8.251198 -53.565487 3.364791 0
-9.026267 -57.879227 1.258087 0
-9.259997 -61.524345 0.830635 0
-6.656593 -63.375298 2.052420 0
-6.488698 -58.912086 3.490291 0
-47.750530 -66.982948 4.087863 0
-5.090883 -75.407883 5.465997 0
-47.903515 -76.718346 4.486532 0
-50.093136 -78.946480 4.944484 0
-47.802094 -74.297806 5.326128 0
-46.989540 -84.750687 4.689996 0
-0.050329 -92.289200 3.261295 0
2.739944 -94.622009 4.015563 0
-33.956638 -97.242203 4.880137 0
-3.942906 -106.490662 4.048650 0
-13.503469 70.258339 7.782928 0
-7.781658 65.134651 8.328676 0
-26.418816 62.074543 6.326429 0
-21.932289 59.731529 7.256298 0
-28.329012 56.141567 6.175438 0
-30.843405 54.063042 10.115143 0
-34.177258 50.788517 7.490365 0
-26.591484 51.170231 4.932456 0
-25.005474 47.512165 5.760372 0
-22.096937 52.208187 6.191477 0
-22.383289 56.076653 7.512753 0
-8.300447 49.223351 5.425215 0
-21.885818 48.695812 7.655487 0
-8.877519 46.419064 6.558095 0
-50.673241 45.102188 9.152484 0
-46.837502 43.359051 10.487396 0
-4.002706 44.708683 9.873989 0
-38.252117 40.088730 8.837269 0
-44.872036 29.888210 4.992664 0
-45.199680 26.545261 5.298376 0
-42.868469 25.699324 7.455551 0
-51.018410 27.815828 7.518387 0
-50.126865 25.814306 9.956511 0
-26.608591 28.468859 9.474304 0
-44.537933 22.242420 6.946179 0
-55.561798 17.173689 8.754443 0
-1.265761 6.496321 9.791615 0
-41.603745 -14.475228 7.709050 0
-4.272354 -17.043144 6.465867 0
-46.704521 -15.349637 6.438060 0
-42.733295 -12.775947 9.787663 0
-35.704681 -20.419546 6.232220 0
-63.951527 -24.748390 4.905455 0
-59.019817 -35.714005 9.125126 0
-57.648598 -34.071705 5.612972 0
-50.555874 -35.060181 4.997818 0
-48.054585 -37.164013 5.609259 0
-62.124329 -46.544975 3.378667 0
-59.386658 -44.239384 4.570893 0
-64.231407 -50.727558 4.545056 0
-60.828018 -45.250675 8.476534 0
-64.587036 -46.453197 6.612329 0
-57.915161 -49.122047 3.165954 0
-60.332970 -51.489208 4.396969 0
-52.592834 -48.473392 4.648326 0
-17.619934 -50.111702 6.416116 0
-19.890018 -49.997147 3.821767 0
-11.797385 -52.210617 6.904968 0
-54.460224 -57.478596 4.708996 0
-21.020439 -53.362232 3.518690 0
-16.863119 -53.977478 4.807468 0
-61.035603 -59.772186 4.880180 0
-57.409512 -56.235600 3.803708 0
-8.441430 -52.100098 5.925057 0
-4.467352 -62.959103 4.260118 0
-39.379993 -65.165291 5.180147 0
-7.429882 -73.703690 4.369748 0
-2.299201 -70.098763 4.108659 0
-41.432362 -89.750908 5.038251 0
-3.159107 -94.788040 7.188848 0
-10.943727 -102.783470 1.763686 0
2.641511 -101.926949 6.568078 0
-21.861090 -105.292206 5.664162 0
-13.148545 -99.265076 2.894795 0
-7.727076 -105.739357 5.535381 0
-17.282171 -106.923744 4.338269 0
-12.056790 71.141113 11.334491 0
-6.422070 71.135597 8.811487 0
-21.499346 62.168182 9.315252 0
-22.738832 58.481682 10.884306 0
-4.571111 63.447365 8.480723 0
-38.621490 56.801891 9.776053 0
-34.636982 58.329674 9.942436 0
-43.842590 51.945000 9.563423 0
-41.340141 54.430676 8.328084 0
-39.869091 52.438065 10.012373 0
-11.204793 53.787769 9.387487 0
-9.713244 49.244232 8.323527 0
-40.077019 44.432362 8.954088 0
-8.643847 46.162189 10.335241 0
-3.907754 39.521069 9.337163 0
-2.811996 35.824677 7.890653 0
-41.171707 29.918959 7.218687 0
-55.387432 31.964527 8.562086 0
-29.197641 32.217636 9.046902 0
-56.270958 25.156219 8.004295 0
-57.083782 19.326588 7.163211 0
-32.497078 15.695331 7.044642 0
-1.711318 16.420473 12.170601 0
-1.912298 10.495708 16.483541 0
