#!ascii version written be Caret
6100 12196
1863 1720 1806 0
1863 1862 1720 0
1828 1806 1636 0
1864 1663 1807 0
1864 1778 1663 0
1865 1807 1779 0
1830 1639 1744 0
1866 1642 1643 0
1749 1866 1643 0
1722 1835 1584 0
1837 1836 1723 0
1839 1751 1811 0
1867 1840 1692 0
1783 1867 1692 0
1868 1752 1784 0
1869 1787 1788 0
1870 1788 1753 0
1870 1869 1788 0
1871 1753 1789 0
1871 1870 1753 0
1872 1813 1725 0
1873 1725 1756 0
1873 1872 1725 0
1842 1873 1756 0
1874 1759 1702 0
1875 1702 1727 0
1875 1874 1702 0
1814 1875 1727 0
1876 1815 1728 0
1844 1728 1653 0
1877 1760 1729 0
1845 1877 1729 0
1762 1878 1761 0
1879 1816 1733 0
1880 1879 1733 0
1880 1733 1734 0
1794 1847 1680 0
1820 1819 1681 0
1881 1820 1797 0
1849 1881 1797 0
1850 1849 1765 0
1824 1852 1683 0
1854 1853 1768 0
1882 1709 1769 0
1883 1738 1627 0
1883 1627 1770 0
1884 1770 1711 0
1857 1771 1800 0
1859 1801 1773 0
1885 1826 1717 0
1803 1885 1717 0
1886 1776 1777 0
1887 1687 1805 0
1887 1777 1687 0
1861 1887 1805 0
1806 1862 1863 0
1888 1806 1828 0
1865 1864 1807 0
1889 1743 1639 0
1890 1781 1831 0
1832 1831 1745 0
1891 1833 1666 0
1891 1666 1746 0
1892 1746 1809 0
1893 1553 1835 0
1893 1835 1722 0
1836 1893 1722 0
1894 1810 1782 0
1895 1838 1668 0
1896 1839 1811 0
1840 1896 1811 0
1897 1724 1812 0
1897 1783 1724 0
1898 1812 1752 0
1899 1752 1868 0
1899 1898 1752 0
1900 1784 1786 0
1869 1786 1787 0
1901 1841 1813 0
1902 1757 1792 0
1903 1728 1844 0
1904 1844 1843 0
1904 1903 1844 0
1905 1846 1761 0
1878 1905 1761 0
1816 1878 1762 0
1906 1734 1763 0
1906 1880 1734 0
1907 1794 1795 0
1908 1795 1848 0
1909 1764 1818 0
1910 1818 1819 0
1911 1851 1798 0
1766 1911 1798 0
1912 1822 1737 0
1912 1737 1823 0
1913 1823 1852 0
1882 1854 1709 0
1914 1882 1769 0
1710 1914 1769 0
1915 1799 1738 0
1884 1883 1770 0
1855 1884 1711 0
1916 1712 1771 0
1917 1858 1772 0
1917 1772 1801 0
1918 1825 1826 0
1885 1918 1826 0
1919 1885 1803 0
1919 1803 1804 0
1920 1804 1740 0
1920 1919 1804 0
1921 1920 1740 0
1922 1740 1774 0
1922 1921 1740 0
1923 1774 1860 0
1923 1922 1774 0
1886 1827 1776 0
1924 1887 1861 0
1890 1830 1781 0
1925 1832 1833 0
1925 1833 1891 0
1893 1834 1553 0
1838 1894 1782 0
1926 1668 1839 0
1926 1895 1668 0
1896 1926 1839 0
1897 1867 1783 0
1898 1897 1812 0
1900 1868 1784 0
1927 1869 1870 0
1928 1927 1870 0
1928 1870 1871 0
1928 1871 1789 0
1929 1789 1841 0
1929 1928 1789 0
1872 1901 1813 0
1842 1872 1873 0
1930 1902 1792 0
1758 1930 1792 0
1931 1843 1760 0
1931 1904 1843 0
1932 1845 1793 0
1932 1793 1730 0
1933 1816 1879 0
1908 1907 1795 0
1934 1909 1818 0
1910 1934 1818 0
1910 1819 1820 0
1935 1821 1736 0
1936 1935 1736 0
1851 1936 1736 0
1912 1911 1766 0
1912 1766 1822 0
1913 1912 1823 0
1937 1914 1710 0
1937 1710 1799 0
1915 1937 1799 0
1916 1855 1712 0
1857 1916 1771 0
1938 1856 1858 0
1939 1862 1806 0
1888 1939 1806 0
1940 1888 1828 0
1941 1778 1864 0
1941 1828 1778 0
1942 1864 1865 0
1779 1942 1865 0
1943 1779 1829 0
1780 1943 1829 0
1889 1639 1830 0
1944 1830 1890 0
1945 1890 1831 0
1832 1945 1831 0
1946 1891 1746 0
1946 1746 1892 0
1947 1610 1834 0
1948 1834 1893 0
1894 1837 1810 0
1949 1896 1840 0
1950 1899 1868 0
1950 1898 1899 0
1869 1900 1786 0
1951 1869 1927 0
1952 1841 1901 0
1952 1929 1841 0
1902 1791 1757 0
1759 1758 1595 0
1953 1876 1728 0
1953 1728 1903 0
1954 1931 1760 0
1877 1954 1760 0
1847 1906 1763 0
1955 1848 1796 0
1909 1817 1764 0
1881 1910 1820 0
1956 1849 1850 0
1957 1850 1821 0
1935 1957 1821 0
1958 1912 1913 0
1854 1959 1853 0
1960 1915 1738 0
1961 1857 1856 0
1938 1961 1856 0
1917 1938 1858 0
1962 1801 1859 0
1963 1885 1919 0
1964 1919 1920 0
1964 1920 1921 0
1965 1860 1827 0
1966 1965 1827 0
1886 1966 1827 0
1967 1777 1887 0
1967 1886 1777 0
1968 1864 1942 0
1968 1941 1864 0
1969 1742 1808 0
1970 1969 1808 0
1970 1808 1606 0
1971 1606 1665 0
1971 1970 1606 0
1972 1665 1743 0
1945 1944 1890 0
1973 1748 1642 0
1948 1947 1834 0
1974 1893 1836 0
1975 1836 1837 0
1976 1838 1895 0
1976 1894 1838 0
1977 1867 1897 0
1900 1950 1868 0
1951 1900 1869 0
1952 1928 1929 0
1978 1875 1814 0
1953 1815 1876 0
1979 1904 1931 0
1954 1979 1931 0
1980 1877 1845 0
1932 1980 1845 0
1846 1932 1730 0
1981 1846 1905 0
1878 1981 1905 0
1982 1879 1880 0
1906 1982 1880 0
1983 1847 1794 0
1983 1794 1907 0
1955 1908 1848 0
1909 1984 1817 0
1956 1881 1849 0
1956 1985 1881 0
1957 1956 1850 0
1986 1913 1852 0
1986 1852 1824 0
1987 1986 1824 0
1987 1824 1853 0
1988 1914 1937 0
1960 1738 1883 0
1989 1855 1916 0
1990 1916 1857 0
1990 1989 1916 0
1991 1961 1938 0
1992 1938 1917 0
1993 1992 1917 0
1962 1917 1801 0
1994 1962 1859 0
1995 1963 1919 0
1964 1995 1919 0
1922 1964 1921 0
1924 1967 1887 0
1996 1861 1862 0
1996 1924 1861 0
1997 1939 1888 0
1998 1888 1940 0
1998 1997 1888 0
1941 1940 1828 0
1999 1779 1943 0
1638 2000 1780 0
2001 1889 1830 0
2002 1830 1944 0
2003 1945 1832 0
1946 1925 1891 0
2004 1747 1748 0
2005 1973 1642 0
2006 1750 1610 0
2007 1837 1894 0
2007 1975 1837 0
2008 1949 1840 0
2008 1840 1867 0
2009 1900 1951 0
2010 1927 1928 0
2011 1842 1791 0
1902 2011 1791 0
2012 1930 1758 0
2013 1758 1759 0
1978 1874 1875 0
2014 1903 1904 0
2014 1953 1903 0
2015 1954 1877 0
2016 1932 1846 0
1981 2016 1846 0
2017 1878 1816 0
2018 2017 1816 0
2018 1816 1933 0
2019 1933 1879 0
1982 2019 1879 0
2020 1906 1847 0
1983 2020 1847 0
1984 1955 1796 0
1984 1796 1817 0
2021 1934 1910 0
1985 1910 1881 0
2022 1936 1851 0
2023 1851 1911 0
2024 1911 1912 0
1959 1987 1853 0
2025 1854 1882 0
2026 1882 1914 0
2026 2025 1882 0
2027 1884 1855 0
1961 2028 1857 0
1993 1917 1962 0
1994 1859 1825 0
2029 1994 1825 0
2030 1825 1918 0
1963 1918 1885 0
2031 1923 1860 0
2032 1860 1965 0
2032 2031 1860 0
2032 1965 1966 0
2033 1996 1862 0
2033 1862 1939 0
1997 2033 1939 0
2034 1943 1780 0
2000 2034 1780 0
1688 2000 1638 0
2035 1892 1809 0
2035 1809 1747 0
2005 1642 1866 0
2036 1749 1750 0
2006 1610 1947 0
1975 1974 1836 0
2037 2007 1894 0
2037 1894 1976 0
2038 1867 1977 0
2038 2008 1867 0
2039 1897 1898 0
2039 1898 1950 0
2009 1950 1900 0
2040 2010 1928 0
2040 1928 1952 0
2041 1872 1842 0
2042 1902 1930 0
2012 2042 1930 0
2013 2012 1758 0
1874 2013 1759 0
2043 1978 1814 0
1815 2043 1814 0
2044 1979 1954 0
1980 2015 1877 0
2017 1981 1878 0
2045 1907 1908 0
1955 2045 1908 0
1936 1957 1935 0
2024 1912 1958 0
2046 1958 1913 0
2046 1913 1986 0
2025 1959 1854 0
2047 1988 1937 0
1989 2027 1855 0
2048 1990 1857 0
2028 2048 1857 0
2049 1961 1991 0
1992 1991 1938 0
2050 1962 1994 0
2050 1993 1962 0
2030 2029 1825 0
2051 1964 1922 0
2052 1922 1923 0
2031 2052 1923 0
1967 1966 1886 0
2053 1967 1924 0
2054 1924 1996 0
2055 1997 1998 0
2055 1998 1940 0
2056 1940 1941 0
1942 1941 1968 0
1942 1779 1999 0
2057 1688 1742 0
2058 2057 1742 0
1969 2058 1742 0
1972 1971 1665 0
2059 1743 1889 0
2002 2001 1830 0
2060 2002 1944 0
2061 1832 1925 0
1946 2062 1925 0
2004 1748 1973 0
1974 1948 1893 0
2063 1974 1975 0
2064 1949 2008 0
2065 2038 1977 0
2066 1897 2039 0
2066 1977 1897 0
2067 2039 1950 0
2068 1927 2010 0
2068 1951 1927 0
2069 2040 1952 0
2070 1872 2041 0
2070 1901 1872 0
2071 2041 1842 0
2071 1842 2011 0
2072 2011 1902 0
2073 2072 1902 0
2042 2073 1902 0
2074 1815 1953 0
2075 2074 1953 0
2075 1953 2014 0
2014 1904 1979 0
2044 2014 1979 0
2076 1980 1932 0
2016 2076 1932 0
2019 2018 1933 0
2077 1955 1984 0
2078 1909 1934 0
2021 2078 1934 0
2079 1910 1985 0
2080 1956 1957 0
2023 2022 1851 0
2081 2023 1911 0
2082 2024 1958 0
2046 2082 1958 0
1987 2083 1986 0
2025 2084 1959 0
2026 2085 2025 0
2086 1914 1988 0
2047 2086 1988 0
1915 2047 1937 0
2087 1883 1884 0
2048 1989 1990 0
2049 2028 1961 0
2029 2050 1994 0
2088 2030 1918 0
2088 1918 1963 0
2089 1963 1995 0
2089 1995 1964 0
2090 2089 1964 0
2051 2090 1964 0
2052 2051 1922 0
2091 2031 2032 0
2092 1966 1967 0
2093 1967 2053 0
2033 2054 1996 0
2094 2033 1997 0
2095 1997 2055 0
2095 2094 1997 0
2096 2056 1941 0
2097 1941 1942 0
2097 2096 1941 0
2098 1943 2034 0
2000 2098 2034 0
2099 1889 2001 0
2100 1944 1945 0
2100 2060 1944 0
2061 2003 1832 0
2061 1925 2062 0
2035 2101 1892 0
2035 1747 2004 0
1749 2102 1866 0
1948 2103 1947 0
2063 1975 2007 0
2104 1926 1896 0
1949 2105 1896 0
2106 2064 2008 0
2106 2008 2038 0
2107 2066 2039 0
2108 2067 1950 0
2109 1950 2009 0
2109 2108 1950 0
2109 2009 1951 0
2110 2010 2040 0
2110 2068 2010 0
2069 2110 2040 0
2111 2069 1952 0
2111 1952 1901 0
2112 2071 2011 0
2112 2011 2072 0
2073 2112 2072 0
2113 2013 1874 0
2113 2012 2013 0
2114 1815 2074 0
2075 2114 2074 0
2115 2075 2014 0
2116 2044 1954 0
2015 2116 1954 0
2117 1981 2017 0
2118 1982 1906 0
2020 2118 1906 0
2119 2020 1983 0
2120 1984 1909 0
2078 2120 1909 0
2079 2021 1910 0
2121 1985 1956 0
2122 1957 1936 0
2122 2080 1957 0
2122 1936 2022 0
2081 1911 2024 0
1986 2123 2046 0
2084 1987 1959 0
2124 2047 1915 0
1960 2124 1915 0
2087 1960 1883 0
2027 2087 1884 0
2049 2048 2028 0
2125 2050 2029 0
2126 2029 2030 0
2088 2126 2030 0
2127 2051 2052 0
2091 2052 2031 0
2092 2032 1966 0
2093 2092 1967 0
2128 2053 1924 0
2128 2093 2053 0
2054 2128 1924 0
2129 2054 2033 0
2130 2129 2033 0
2094 2130 2033 0
2056 2055 1940 0
2098 1999 1943 0
2057 2000 1688 0
2099 2059 1889 0
2131 2099 2001 0
2132 2001 2002 0
2132 2131 2001 0
2060 2132 2002 0
2133 2100 1945 0
2133 1945 2003 0
2134 2133 2003 0
2134 2003 2061 0
2101 1946 1892 0
2135 2004 1973 0
2102 2005 1866 0
2136 2036 1750 0
2103 2006 1947 0
1974 2137 1948 0
2063 2138 1974 0
2139 2037 1976 0
2140 1895 1926 0
2104 2140 1926 0
2105 2104 1896 0
2107 1977 2066 0
2107 2065 1977 0
2141 2109 1951 0
2070 2111 1901 0
2142 2041 2071 0
2142 2070 2041 0
2112 2142 2071 0
2143 2073 2042 0
2143 2042 2012 0
2113 2143 2012 0
2114 2043 1815 0
2144 2014 2044 0
2145 2076 2016 0
2145 2016 1981 0
2146 2017 2018 0
2147 2018 2019 0
2148 2019 1982 0
2119 2118 2020 0
1907 2119 1983 0
2077 2045 1955 0
2120 2077 1984 0
2149 2021 2079 0
2150 1956 2080 0
2150 2121 1956 0
2151 2023 2081 0
2123 2082 2046 0
2152 1987 2084 0
2153 2084 2025 0
2153 2025 2085 0
2154 2026 1914 0
2154 2085 2026 0
2154 1914 2086 0
2155 2086 2047 0
2048 2156 1989 0
2157 2048 2049 0
2127 2090 2051 0
2158 2127 2052 0
2158 2052 2091 0
2159 2092 2093 0
2129 2128 2054 0
2160 2094 2095 0
2160 2130 2094 0
2161 2055 2056 0
2162 2056 2096 0
2162 2161 2056 0
2135 2163 2004 0
2136 1749 2036 0
2164 2006 2103 0
2137 2103 1948 0
2037 2063 2007 0
2139 1976 1895 0
2105 1949 2064 0
2165 2064 2106 0
2106 2038 2065 0
2067 2107 2039 0
2166 2067 2108 0
2167 2108 2109 0
2110 1951 2068 0
2168 2069 2111 0
2168 2111 2070 0
2169 2142 2112 0
2170 1980 2076 0
2170 2171 1980 0
2172 2145 1981 0
2172 1981 2117 0
2172 2117 2017 0
2147 2146 2018 0
2148 2147 2019 0
2173 2119 1907 0
2045 2173 1907 0
2149 2174 2021 0
1985 2149 2079 0
2175 2080 2122 0
2175 2150 2080 0
2176 2122 2022 0
2177 2022 2023 0
2177 2176 2022 0
2151 2177 2023 0
2178 2151 2081 0
2179 2081 2024 0
2083 2180 1986 0
2153 2152 2084 0
2181 2047 2124 0
2182 1960 2087 0
2183 2027 1989 0
2157 2156 2048 0
2184 2049 1991 0
2184 1991 1992 0
2050 2185 1993 0
2186 2126 2088 0
2187 2088 1963 0
2187 2186 2088 0
2187 1963 2089 0
2188 2091 2032 0
2188 2032 2092 0
2189 2188 2092 0
2159 2189 2092 0
2190 2130 2160 0
2095 2190 2160 0
2161 2095 2055 0
2191 2162 2096 0
2192 2096 2097 0
2192 2191 2096 0
2192 2097 1942 0
2193 1999 2098 0
2193 1942 1999 0
2194 2098 2000 0
2195 2060 2100 0
2133 2195 2100 0
2196 2134 2061 0
2197 2005 2102 0
2198 2102 1749 0
2164 1750 2006 0
2137 1974 2138 0
2165 2105 2064 0
2167 2166 2108 0
2167 2109 2141 0
2199 2141 1951 0
2199 1951 2110 0
2200 2110 2069 0
2201 2168 2070 0
1978 2113 1874 0
2116 2144 2044 0
2171 2015 1980 0
2146 2172 2017 0
2118 2148 1982 0
2202 2045 2077 0
2120 2202 2077 0
2203 2120 2078 0
2203 2078 2021 0
2174 2203 2021 0
2204 2149 1985 0
2121 2204 1985 0
2178 2177 2151 0
2179 2024 2082 0
2180 2123 1986 0
2152 2083 1987 0
2155 2205 2086 0
2181 2155 2047 0
2206 2124 1960 0
2182 2206 1960 0
2207 2087 2027 0
2183 2207 2027 0
2208 2156 2157 0
2184 2157 2049 0
2209 1992 1993 0
2209 2184 1992 0
2125 2185 2050 0
2125 2029 2126 0
2210 2089 2090 0
2211 2090 2127 0
2211 2127 2158 0
2188 2158 2091 0
2212 2093 2128 0
2213 2128 2129 0
2190 2129 2130 0
2191 2161 2162 0
2214 2000 2057 0
2215 1969 1970 0
2216 2133 2134 0
2217 1946 2101 0
2218 2101 2035 0
2219 2035 2004 0
2163 2219 2004 0
2220 1973 2005 0
2220 2005 2197 0
2136 2198 1749 0
2221 2136 1750 0
2164 2221 1750 0
2222 2103 2137 0
2140 2139 1895 0
2223 2104 2105 0
2165 2223 2105 0
2224 2165 2106 0
2224 2106 2065 0
2107 2225 2065 0
2226 2107 2067 0
2226 2067 2166 0
2200 2199 2110 0
2227 2069 2168 0
2227 2200 2069 0
2142 2201 2070 0
2228 2169 2112 0
2229 2073 2143 0
2113 2229 2143 0
2115 2114 2075 0
2144 2115 2014 0
2230 2144 2116 0
2231 2116 2015 0
2232 2148 2118 0
2233 2204 2121 0
2233 2121 2150 0
2176 2234 2122 0
2235 2176 2177 0
2235 2177 2178 0
2236 2178 2081 0
2236 2081 2179 0
2237 2179 2082 0
2238 2082 2123 0
2238 2237 2082 0
2180 2238 2123 0
2239 2085 2154 0
2205 2154 2086 0
2240 2182 2087 0
2207 2240 2087 0
2241 2207 2183 0
2156 2183 1989 0
2242 1993 2185 0
2243 2187 2089 0
2210 2243 2089 0
2244 2090 2211 0
2244 2210 2090 0
2188 2245 2158 0
2246 2093 2212 0
2246 2159 2093 0
2213 2212 2128 0
2247 2129 2190 0
2247 2213 2129 0
2248 2190 2095 0
2161 2248 2095 0
2249 2161 2191 0
2249 2191 2192 0
2250 2192 1942 0
2251 1942 2193 0
2251 2250 1942 0
2252 2194 2000 0
2214 2252 2000 0
2215 2058 1969 0
2253 2099 2131 0
2253 2131 2132 0
2254 2132 2060 0
2255 2195 2133 0
2256 2061 2062 0
2257 2062 1946 0
2217 2257 1946 0
2219 2218 2035 0
2258 2135 1973 0
2220 2258 1973 0
2222 2164 2103 0
2259 2063 2037 0
2259 2037 2139 0
2223 2140 2104 0
2225 2224 2065 0
2260 2107 2226 0
2261 2199 2200 0
2227 2261 2200 0
2262 2168 2201 0
2262 2201 2142 0
2263 2142 2169 0
2228 2263 2169 0
2228 2112 2073 0
2229 2228 2073 0
2264 2229 2113 0
2265 2113 1978 0
2266 2114 2115 0
2267 2230 2116 0
2231 2267 2116 0
2171 2231 2015 0
2232 2118 2119 0
2173 2268 2119 0
2269 2174 2149 0
2175 2233 2150 0
2234 2175 2122 0
2270 2152 2153 0
2271 2270 2153 0
2271 2153 2085 0
2239 2271 2085 0
2205 2239 2154 0
2272 2205 2155 0
2273 2155 2181 0
2274 2181 2124 0
2274 2124 2206 0
2241 2183 2156 0
2242 2209 1993 0
2275 2126 2186 0
2276 2186 2187 0
2277 2211 2158 0
2245 2277 2158 0
2278 2247 2190 0
2248 2278 2190 0
2279 2248 2161 0
2280 2161 2249 0
2281 2057 2058 0
2099 2282 2059 0
2254 2253 2132 0
2283 2060 2195 0
2216 2255 2133 0
2256 2196 2061 0
2257 2256 2062 0
2197 2102 2198 0
2284 2138 2063 0
2260 2225 2107 0
2285 2166 2167 0
2285 2226 2166 0
2286 2141 2199 0
2286 2287 2141 0
2261 2286 2199 0
2288 2264 2113 0
2172 2289 2145 0
2289 2076 2145 0
2290 2173 2045 0
2290 2045 2202 0
2291 2202 2120 0
2292 2204 2233 0
2293 2233 2175 0
2235 2294 2176 0
2236 2235 2178 0
2237 2295 2179 0
2296 2237 2238 0
2180 2296 2238 0
2297 2271 2239 0
2272 2155 2273 0
2274 2273 2181 0
2298 2206 2182 0
2298 2274 2206 0
2299 2240 2207 0
2299 2207 2241 0
2208 2300 2156 0
2301 2208 2157 0
2184 2301 2157 0
2302 2184 2209 0
2303 2125 2126 0
2304 2303 2126 0
2275 2304 2126 0
2275 2186 2276 0
2305 2276 2187 0
2306 2210 2244 0
2277 2244 2211 0
2307 2188 2189 0
2308 2189 2159 0
2309 2159 2246 0
2309 2308 2159 0
2310 2213 2247 0
2310 2212 2213 0
2311 2247 2278 0
2311 2310 2247 0
2280 2279 2161 0
2312 2098 2194 0
2252 2312 2194 0
2313 1970 1971 0
2059 1972 1743 0
2253 2282 2099 0
2314 2134 2196 0
2314 2216 2134 0
2315 2164 2222 0
2315 2221 2164 0
2316 2063 2259 0
2317 2259 2139 0
2318 2317 2139 0
2319 2223 2165 0
2320 2319 2165 0
2320 2165 2224 0
2321 2224 2225 0
2260 2321 2225 0
2322 2167 2141 0
2287 2322 2141 0
2323 2261 2227 0
2323 2227 2168 0
2262 2323 2168 0
2263 2262 2142 0
2265 2288 2113 0
2043 2265 1978 0
2291 2290 2202 0
2324 2203 2174 0
2325 2149 2204 0
2292 2325 2204 0
2294 2234 2176 0
2295 2236 2179 0
2326 2180 2083 0
2327 2083 2152 0
2272 2239 2205 0
2328 2273 2274 0
2329 2298 2182 0
2330 2241 2156 0
2330 2156 2300 0
2331 2301 2184 0
2332 2209 2242 0
2332 2302 2209 0
2332 2242 2185 0
2333 2185 2125 0
2333 2332 2185 0
2334 2125 2303 0
2275 2276 2305 0
2243 2305 2187 0
2306 2243 2210 0
2308 2307 2189 0
2335 2309 2246 0
2336 2246 2212 0
2336 2335 2246 0
2336 2212 2310 0
2311 2336 2310 0
2248 2311 2278 0
2337 2248 2279 0
2337 2279 2280 0
2338 2192 2250 0
2339 2193 2098 0
2312 2339 2098 0
2281 2214 2057 0
2340 1972 2059 0
2283 2254 2060 0
2341 2283 2195 0
2341 2195 2255 0
2342 2196 2256 0
2218 2217 2101 0
2343 2222 2137 0
2344 2137 2138 0
2316 2284 2063 0
2345 2318 2139 0
2345 2139 2140 0
2346 2140 2223 0
2346 2345 2140 0
2347 2320 2224 0
2321 2347 2224 0
2348 2260 2226 0
2348 2226 2285 0
2349 2286 2261 0
2349 2261 2323 0
2350 2228 2229 0
2350 2229 2264 0
2351 2265 2043 0
2230 2115 2144 0
2289 2170 2076 0
2352 2353 2172 0
2353 2289 2172 0
2354 2147 2148 0
2354 2148 2232 0
2290 2268 2173 0
2355 2120 2203 0
2355 2291 2120 0
2324 2355 2203 0
2325 2269 2149 0
2234 2293 2175 0
2356 2235 2236 0
2326 2296 2180 0
2357 2152 2270 0
2357 2327 2152 0
2358 2270 2271 0
2272 2297 2239 0
2298 2328 2274 0
2359 2329 2182 0
2359 2182 2240 0
2360 2240 2299 0
2360 2359 2240 0
2361 2360 2299 0
2361 2299 2241 0
2362 2208 2301 0
2331 2184 2302 0
2334 2333 2125 0
2363 2275 2305 0
2364 2306 2244 0
2364 2244 2277 0
2365 2188 2307 0
2365 2245 2188 0
2366 2311 2248 0
2367 2249 2192 0
2338 2367 2192 0
2251 2338 2250 0
2339 2251 2193 0
2215 2281 2058 0
2368 2313 1971 0
1972 2368 1971 0
2340 2059 2282 0
2342 2314 2196 0
2369 2256 2257 0
2136 2221 2315 0
2344 2343 2137 0
2370 2344 2138 0
2370 2138 2284 0
2317 2316 2259 0
2345 2317 2318 0
2371 2223 2319 0
2372 2285 2167 0
2372 2348 2285 0
2372 2167 2322 0
2373 2323 2262 0
2373 2262 2263 0
2374 2263 2228 0
2375 2374 2228 0
2350 2375 2228 0
2376 2350 2264 0
2377 2288 2265 0
2351 2377 2265 0
2378 2115 2230 0
2146 2352 2172 0
2379 2146 2147 0
2380 2379 2147 0
2381 2232 2119 0
2381 2119 2268 0
2382 2269 2325 0
2383 2325 2292 0
2295 2356 2236 0
2384 2237 2296 0
2327 2326 2083 0
2358 2357 2270 0
2297 2358 2271 0
2385 2272 2273 0
2328 2385 2273 0
2386 2328 2298 0
2330 2361 2241 0
2387 2330 2300 0
2362 2300 2208 0
2388 2301 2331 0
2388 2362 2301 0
2389 2331 2302 0
2389 2302 2332 0
2390 2332 2333 0
2391 2333 2334 0
2391 2390 2333 0
2392 2334 2303 0
2393 2303 2304 0
2275 2393 2304 0
2243 2363 2305 0
2394 2243 2306 0
2395 2364 2277 0
2396 2365 2307 0
2308 2396 2307 0
2397 2336 2311 0
2366 2397 2311 0
2367 2280 2249 0
2398 2252 2214 0
2399 2282 2253 0
2400 2253 2254 0
2255 2401 2341 0
2402 2255 2216 0
2403 2314 2342 0
2403 2404 2314 0
2343 2315 2222 0
2371 2346 2223 0
2405 2373 2263 0
2376 2375 2350 0
2406 2376 2264 0
2406 2264 2288 0
2407 2230 2267 0
2231 2407 2267 0
2379 2352 2146 0
2354 2380 2147 0
2408 2268 2290 0
2291 2409 2290 0
2269 2324 2174 0
2382 2410 2269 0
2233 2383 2292 0
2411 2293 2234 0
2412 2234 2294 0
2356 2294 2235 0
2413 2356 2295 0
2414 2413 2295 0
2384 2414 2295 0
2384 2295 2237 0
2415 2384 2296 0
2415 2296 2326 0
2416 2297 2272 0
2385 2416 2272 0
2417 2385 2328 0
2386 2417 2328 0
2418 2329 2359 0
2360 2418 2359 0
2419 2361 2330 0
2420 2388 2331 0
2391 2334 2392 0
2393 2392 2303 0
2421 2363 2243 0
2422 2421 2243 0
2394 2422 2243 0
2423 2394 2306 0
2423 2306 2364 0
2424 2245 2365 0
2425 2308 2309 0
2425 2309 2335 0
2426 2335 2336 0
2426 2425 2335 0
2397 2426 2336 0
2427 2397 2366 0
2428 2248 2337 0
2429 2280 2367 0
2430 2367 2338 0
2431 2339 2312 0
2432 2312 2252 0
2281 2398 2214 0
2313 2215 1970 0
2433 2283 2341 0
2401 2433 2341 0
2434 2255 2402 0
2435 2216 2314 0
2435 2402 2216 0
2369 2342 2256 0
2436 2257 2217 0
2437 2198 2136 0
2438 2343 2344 0
2439 2316 2317 0
2440 2320 2347 0
2441 2321 2260 0
2442 2348 2372 0
2443 2372 2322 0
2443 2442 2372 0
2443 2322 2287 0
2444 2287 2286 0
2445 2349 2323 0
2373 2445 2323 0
2374 2405 2263 0
2446 2043 2114 0
2447 2230 2407 0
2448 2407 2231 0
2448 2447 2407 0
2449 2448 2231 0
2171 2449 2231 0
2410 2324 2269 0
2450 2357 2358 0
2451 2358 2297 0
2452 2386 2298 0
2452 2298 2329 0
2418 2452 2329 0
2453 2330 2387 0
2453 2419 2330 0
2454 2300 2362 0
2454 2387 2300 0
2420 2331 2389 0
2455 2389 2332 0
2390 2455 2332 0
2456 2391 2392 0
2457 2393 2275 0
2457 2275 2363 0
2421 2457 2363 0
2458 2364 2395 0
2458 2423 2364 0
2459 2395 2277 0
2459 2458 2395 0
2460 2424 2365 0
2461 2308 2425 0
2461 2396 2308 0
2462 2425 2426 0
2463 2426 2397 0
2464 2397 2427 0
2464 2463 2397 0
2465 2366 2248 0
2466 2248 2428 0
2466 2465 2248 0
2337 2466 2428 0
2430 2429 2367 0
2467 2251 2339 0
2432 2431 2312 0
2398 2432 2252 0
2468 2215 2313 0
2469 2400 2254 0
2469 2254 2283 0
2434 2401 2255 0
2435 2434 2402 0
2470 2342 2369 0
2436 2369 2257 0
2437 2197 2198 0
2471 2315 2343 0
2438 2471 2343 0
2370 2438 2344 0
2472 2370 2284 0
2472 2284 2316 0
2440 2319 2320 0
2473 2347 2321 0
2473 2440 2347 0
2473 2321 2441 0
2474 2260 2348 0
2474 2441 2260 0
2442 2474 2348 0
2444 2443 2287 0
2475 2444 2286 0
2475 2286 2349 0
2476 2349 2445 0
2476 2475 2349 0
2477 2373 2405 0
2377 2406 2288 0
2478 2377 2351 0
2478 2351 2043 0
2446 2478 2043 0
2479 2230 2447 0
2480 2448 2449 0
2480 2447 2448 0
2481 2449 2171 0
2481 2480 2449 0
2482 2379 2380 0
2483 2380 2354 0
2483 2354 2232 0
2484 2483 2232 0
2409 2408 2290 0
2355 2409 2291 0
2485 2410 2382 0
2485 2382 2325 0
2485 2325 2383 0
2486 2383 2233 0
2486 2233 2293 0
2487 2412 2294 0
2487 2294 2356 0
2488 2487 2356 0
2489 2413 2414 0
2489 2414 2384 0
2490 2415 2326 0
2491 2326 2327 0
2492 2491 2327 0
2492 2327 2357 0
2451 2450 2358 0
2416 2451 2297 0
2493 2452 2418 0
2494 2360 2361 0
2495 2420 2389 0
2496 2390 2391 0
2497 2392 2393 0
2497 2456 2392 0
2498 2497 2393 0
2499 2393 2457 0
2500 2394 2423 0
2500 2422 2394 0
2459 2277 2245 0
2501 2245 2424 0
2501 2459 2245 0
2460 2501 2424 0
2502 2365 2396 0
2502 2460 2365 0
2462 2461 2425 0
2427 2366 2465 0
2466 2427 2465 0
2503 2337 2280 0
2504 2280 2429 0
2504 2503 2280 0
2505 2504 2429 0
2505 2429 2430 0
2506 2339 2431 0
2506 2467 2339 0
2507 2398 2281 0
2508 2340 2282 0
2508 2282 2399 0
2509 2469 2283 0
2510 2283 2433 0
2403 2342 2470 0
2511 2470 2369 0
2436 2511 2369 0
2220 2135 2258 0
2512 2136 2315 0
2513 2439 2317 0
2477 2445 2373 0
2514 2405 2374 0
2514 2374 2375 0
2515 2375 2376 0
2515 2514 2375 0
2516 2376 2406 0
2517 2406 2377 0
2518 2480 2481 0
2518 2447 2480 0
2171 2518 2481 0
2519 2353 2352 0
2379 2519 2352 0
2484 2232 2381 0
2520 2381 2268 0
2488 2356 2413 0
2521 2489 2384 0
2415 2521 2384 0
2491 2490 2326 0
2450 2522 2357 0
2523 2451 2416 0
2524 2416 2385 0
2452 2525 2386 0
2419 2494 2361 0
2526 2453 2387 0
2526 2387 2454 0
2527 2362 2388 0
2420 2527 2388 0
2496 2455 2390 0
2456 2496 2391 0
2498 2393 2499 0
2499 2457 2421 0
2528 2501 2460 0
2528 2459 2501 0
2529 2460 2502 0
2530 2396 2461 0
2530 2502 2396 0
2531 2530 2461 0
2532 2461 2462 0
2532 2531 2461 0
2532 2462 2426 0
2463 2532 2426 0
2533 2427 2466 0
2534 2337 2503 0
2534 2466 2337 0
2467 2338 2251 0
2535 1972 2340 0
2536 2400 2469 0
2536 2253 2400 0
2510 2509 2283 0
2401 2510 2433 0
2404 2435 2314 0
2512 2437 2136 0
2439 2472 2316 0
2537 2442 2443 0
2538 2443 2444 0
2538 2444 2475 0
2539 2445 2477 0
2539 2476 2445 0
2517 2516 2406 0
2517 2377 2478 0
2540 2446 2114 0
2541 2540 2114 0
2542 2114 2266 0
2479 2378 2230 0
2483 2482 2380 0
2543 2324 2410 0
2411 2486 2293 0
2544 2234 2412 0
2544 2411 2234 0
2545 2412 2487 0
2546 2488 2413 0
2489 2546 2413 0
2547 2521 2415 0
2547 2415 2490 0
2522 2492 2357 0
2548 2450 2451 0
2523 2548 2451 0
2524 2523 2416 0
2549 2524 2385 0
2549 2385 2417 0
2525 2417 2386 0
2550 2525 2452 0
2550 2452 2493 0
2551 2550 2493 0
2552 2493 2418 0
2552 2551 2493 0
2552 2418 2360 0
2552 2360 2494 0
2553 2526 2454 0
2553 2454 2362 0
2527 2553 2362 0
2554 2495 2389 0
2554 2389 2455 0
2555 2497 2498 0
2556 2499 2421 0
2556 2421 2422 0
2557 2422 2500 0
2557 2556 2422 0
2558 2500 2423 0
2558 2423 2458 0
2559 2459 2528 0
2529 2528 2460 0
2560 2502 2530 0
2560 2529 2502 0
2561 2532 2463 0
2562 2427 2533 0
2562 2464 2427 0
2504 2534 2503 0
2563 2430 2338 0
2564 2338 2467 0
2564 2563 2338 0
2535 2368 1972 0
2536 2399 2253 0
2565 2404 2403 0
2566 2217 2218 0
2567 2218 2219 0
2568 2163 2135 0
2569 2135 2220 0
2570 2512 2315 0
2571 2370 2472 0
2572 2345 2346 0
2572 2317 2345 0
2573 2441 2474 0
2537 2474 2442 0
2538 2537 2443 0
2574 2475 2476 0
2575 2515 2376 0
2575 2376 2516 0
2542 2541 2114 0
2115 2542 2266 0
2289 2171 2170 0
2519 2289 2353 0
2576 2484 2381 0
2577 2381 2520 0
2577 2576 2381 0
2578 2268 2408 0
2578 2408 2409 0
2579 2578 2409 0
2580 2383 2486 0
2545 2544 2412 0
2491 2547 2490 0
2581 2549 2417 0
2525 2581 2417 0
2582 2494 2419 0
2582 2552 2494 0
2582 2419 2453 0
2583 2453 2526 0
2584 2420 2495 0
2585 2455 2496 0
2585 2554 2455 0
2586 2496 2456 0
2497 2586 2456 0
2555 2498 2499 0
2587 2557 2500 0
2558 2587 2500 0
2588 2458 2459 0
2559 2588 2459 0
2529 2559 2528 0
2589 2529 2560 0
2530 2589 2560 0
2590 2530 2531 0
2591 2532 2561 0
2591 2531 2532 0
2592 2561 2463 0
2592 2591 2561 0
2592 2463 2464 0
2562 2593 2464 0
2466 2562 2533 0
2467 2563 2564 0
2398 2594 2432 0
2595 2535 2340 0
2508 2595 2340 0
2596 2399 2536 0
2597 2509 2510 0
2598 2510 2401 0
2599 2435 2404 0
2565 2599 2404 0
2600 2219 2163 0
2600 2567 2219 0
2569 2568 2135 0
2601 2570 2315 0
2601 2315 2471 0
2602 2439 2513 0
2603 2346 2371 0
2604 2371 2319 0
2605 2473 2441 0
2605 2440 2473 0
2606 2474 2537 0
2607 2538 2475 0
2574 2607 2475 0
2608 2477 2405 0
2608 2539 2477 0
2609 2405 2514 0
2609 2514 2515 0
2610 2609 2515 0
2575 2610 2515 0
2611 2516 2517 0
2612 2478 2446 0
2612 2517 2478 0
2613 2446 2540 0
2541 2613 2540 0
2614 2542 2115 0
2615 2115 2378 0
2615 2614 2115 0
2616 2289 2519 0
2617 2519 2379 0
2482 2617 2379 0
2618 2482 2483 0
2577 2520 2268 0
2355 2579 2409 0
2619 2355 2324 0
2620 2324 2543 0
2621 2543 2410 0
2621 2410 2485 0
2622 2485 2383 0
2580 2622 2383 0
2623 2624 2486 0
2623 2486 2411 0
2625 2487 2488 0
2626 2625 2488 0
2546 2626 2488 0
2627 2628 2547 0
2491 2627 2547 0
2629 2492 2522 0
2548 2522 2450 0
2630 2548 2523 0
2631 2527 2420 0
2584 2631 2420 0
2632 2555 2499 0
2633 2499 2556 0
2633 2556 2557 0
2587 2633 2557 0
2634 2558 2458 0
2588 2634 2458 0
2635 2559 2529 0
2636 2635 2529 0
2589 2636 2529 0
2590 2589 2530 0
2591 2590 2531 0
2593 2592 2464 0
2637 2466 2534 0
2638 2563 2467 0
2639 2638 2467 0
2640 2467 2506 0
2640 2639 2467 0
2641 2506 2431 0
2641 2640 2506 0
2642 2431 2432 0
2643 2507 2281 0
2644 2281 2215 0
2468 2644 2215 0
2596 2508 2399 0
2645 2596 2536 0
2645 2536 2469 0
2598 2597 2510 0
2646 2401 2434 0
2646 2598 2401 0
2647 2434 2435 0
2599 2647 2435 0
2648 2565 2403 0
2648 2403 2470 0
2649 2470 2511 0
2650 2436 2217 0
2566 2650 2217 0
2651 2600 2163 0
2652 2220 2197 0
2653 2652 2197 0
2654 2197 2437 0
2655 2437 2512 0
2655 2512 2570 0
2656 2471 2438 0
2657 2438 2370 0
2571 2657 2370 0
2658 2571 2472 0
2658 2472 2439 0
2602 2658 2439 0
2603 2572 2346 0
2604 2603 2371 0
2659 2604 2319 0
2659 2319 2440 0
2660 2605 2441 0
2660 2441 2573 0
2606 2573 2474 0
2661 2574 2476 0
2539 2661 2476 0
2662 2539 2608 0
2609 2608 2405 0
2613 2612 2446 0
2663 2447 2518 0
2663 2518 2171 0
2618 2664 2482 0
2619 2579 2355 0
2665 2619 2324 0
2620 2665 2324 0
2624 2580 2486 0
2625 2545 2487 0
2628 2521 2547 0
2492 2627 2491 0
2524 2630 2523 0
2666 2525 2550 0
2666 2581 2525 0
2667 2550 2551 0
2667 2551 2552 0
2668 2453 2583 0
2668 2582 2453 0
2669 2583 2526 0
2553 2669 2526 0
2631 2553 2527 0
2670 2584 2495 0
2670 2495 2554 0
2671 2670 2554 0
2671 2554 2585 0
2671 2585 2496 0
2672 2671 2496 0
2672 2496 2586 0
2673 2497 2555 0
2673 2586 2497 0
2674 2673 2555 0
2633 2632 2499 0
2675 2591 2592 0
2676 2592 2593 0
2677 2593 2562 0
2637 2562 2466 0
2637 2677 2562 0
2678 2637 2534 0
2679 2505 2430 0
2563 2679 2430 0
2642 2641 2431 0
2594 2642 2432 0
2507 2594 2398 0
2644 2643 2281 0
2368 2468 2313 0
2680 2469 2509 0
2597 2680 2509 0
2681 2511 2436 0
2681 2649 2511 0
2651 2163 2568 0
2652 2569 2220 0
2654 2653 2197 0
2655 2654 2437 0
2656 2601 2471 0
2657 2656 2438 0
2682 2513 2317 0
2682 2317 2572 0
2659 2440 2605 0
2661 2607 2574 0
2683 2661 2539 0
2516 2610 2575 0
2684 2611 2517 0
2684 2517 2612 0
2613 2684 2612 0
2685 2542 2614 0
2686 2614 2615 0
2687 2479 2447 0
2663 2687 2447 0
2688 2663 2171 0
2289 2688 2171 0
2664 2617 2482 0
2689 2618 2483 0
2689 2483 2484 0
2576 2690 2484 0
2578 2577 2268 0
2691 2544 2545 0
2692 2546 2489 0
2692 2489 2521 0
2693 2627 2492 0
2629 2694 2492 0
2629 2522 2548 0
2695 2630 2524 0
2695 2524 2549 0
2696 2695 2549 0
2582 2667 2552 0
2669 2668 2583 0
2632 2674 2555 0
2697 2632 2633 0
2698 2697 2633 0
2699 2633 2587 0
2700 2587 2558 0
2701 2634 2588 0
2702 2588 2559 0
2702 2701 2588 0
2635 2702 2559 0
2703 2635 2636 0
2703 2636 2589 0
2704 2589 2590 0
2705 2590 2591 0
2705 2704 2590 0
2706 2534 2504 0
2706 2678 2534 0
2707 2504 2505 0
2707 2706 2504 0
2707 2505 2679 0
2638 2679 2563 0
2708 2639 2640 0
2709 2642 2594 0
2646 2434 2647 0
2649 2648 2470 0
2710 2436 2650 0
2711 2650 2566 0
2712 2711 2566 0
2567 2566 2218 0
2682 2602 2513 0
2660 2659 2605 0
2713 2573 2606 0
2714 2606 2537 0
2714 2537 2538 0
2715 2714 2538 0
2715 2538 2607 0
2716 2607 2661 0
2683 2716 2661 0
2662 2683 2539 0
2717 2662 2608 0
2718 2608 2609 0
2686 2685 2614 0
2479 2615 2378 0
2719 2616 2519 0
2617 2719 2519 0
2720 2578 2579 0
2619 2720 2579 0
2721 2620 2543 0
2722 2621 2485 0
2722 2485 2622 0
2723 2623 2411 0
2724 2628 2627 0
2694 2693 2492 0
2725 2694 2629 0
2726 2629 2548 0
2727 2548 2630 0
2581 2696 2549 0
2728 2666 2550 0
2728 2550 2667 0
2729 2669 2553 0
2729 2553 2631 0
2730 2631 2584 0
2730 2729 2631 0
2731 2730 2584 0
2731 2584 2670 0
2732 2671 2672 0
2733 2672 2586 0
2733 2586 2673 0
2734 2674 2632 0
2699 2698 2633 0
2735 2587 2700 0
2735 2699 2587 0
2736 2558 2634 0
2736 2700 2558 0
2701 2736 2634 0
2704 2703 2589 0
2737 2591 2675 0
2737 2705 2591 0
2738 2675 2592 0
2738 2737 2675 0
2739 2677 2637 0
2678 2739 2637 0
2740 2679 2638 0
2708 2638 2639 0
2641 2708 2640 0
2596 2741 2508 0
2742 2469 2680 0
2742 2645 2469 0
2743 2680 2597 0
2744 2597 2598 0
2745 2647 2746 0
2745 2646 2647 0
2746 2647 2599 0
2648 2599 2565 0
2710 2681 2436 0
2711 2710 2650 0
2712 2566 2567 0
2747 2567 2600 0
2748 2654 2655 0
2748 2655 2570 0
2749 2748 2570 0
2601 2749 2570 0
2750 2602 2682 0
2572 2750 2682 0
2713 2660 2573 0
2716 2715 2607 0
2718 2717 2608 0
2751 2609 2610 0
2752 2610 2516 0
2611 2752 2516 0
2753 2684 2613 0
2754 2541 2542 0
2719 2617 2664 0
2690 2689 2484 0
2755 2690 2576 0
2756 2755 2576 0
2756 2576 2577 0
2757 2577 2578 0
2758 2543 2621 0
2759 2622 2580 0
2759 2722 2622 0
2760 2411 2544 0
2760 2723 2411 0
2691 2760 2544 0
2761 2545 2625 0
2761 2691 2545 0
2761 2625 2626 0
2727 2726 2548 0
2762 2630 2695 0
2763 2695 2696 0
2764 2696 2581 0
2764 2581 2666 0
2582 2765 2667 0
2766 2668 2669 0
2766 2767 2668 0
2733 2732 2672 0
2768 2673 2674 0
2768 2733 2673 0
2734 2768 2674 0
2769 2734 2632 0
2697 2769 2632 0
2770 2697 2698 0
2771 2702 2635 0
2771 2635 2703 0
2772 2705 2737 0
2738 2772 2737 0
2773 2592 2676 0
2773 2738 2592 0
2740 2707 2679 0
2708 2740 2638 0
2774 2595 2508 0
2743 2742 2680 0
2744 2743 2597 0
2646 2744 2598 0
2775 2599 2648 0
2776 2649 2681 0
2747 2600 2651 0
2777 2568 2569 0
2777 2569 2652 0
2778 2652 2653 0
2778 2779 2652 0
2780 2683 2662 0
2717 2780 2662 0
2751 2718 2609 0
2781 2613 2541 0
2754 2781 2541 0
2685 2754 2542 0
2782 2686 2615 0
2783 2615 2479 0
2783 2479 2687 0
2784 2687 2663 0
2688 2784 2663 0
2785 2618 2689 0
2786 2756 2577 0
2720 2757 2578 0
2787 2619 2665 0
2721 2665 2620 0
2758 2721 2543 0
2722 2758 2621 0
2788 2759 2580 0
2624 2788 2580 0
2789 2623 2723 0
2790 2761 2626 0
2791 2626 2546 0
2791 2546 2692 0
2792 2627 2693 0
2792 2724 2627 0
2792 2693 2694 0
2726 2725 2629 0
2793 2765 2582 0
2668 2793 2582 0
2794 2766 2669 0
2794 2669 2729 0
2795 2731 2670 0
2795 2670 2671 0
2732 2795 2671 0
2769 2768 2734 0
2770 2769 2697 0
2796 2700 2736 0
2796 2735 2700 0
2797 2701 2702 0
2798 2702 2771 0
2798 2797 2702 0
2799 2771 2703 0
2800 2703 2704 0
2800 2799 2703 0
2801 2704 2705 0
2801 2802 2704 0
2801 2705 2772 0
2803 2676 2593 0
2803 2773 2676 0
2804 2593 2677 0
2804 2803 2593 0
2707 2678 2706 0
2805 2641 2642 0
2806 2594 2507 0
2806 2709 2594 0
2645 2741 2596 0
2807 2744 2646 0
2807 2808 2744 0
2809 2745 2746 0
2809 2746 2599 0
2775 2809 2599 0
2776 2648 2649 0
2776 2681 2710 0
2810 2712 2567 0
2811 2567 2747 0
2811 2810 2567 0
2812 2651 2568 0
2779 2777 2652 0
2778 2653 2654 0
2813 2657 2571 0
2750 2658 2602 0
2604 2814 2603 0
2659 2814 2604 0
2815 2659 2660 0
2816 2715 2716 0
2780 2716 2683 0
2751 2717 2718 0
2817 2611 2684 0
2753 2817 2684 0
2781 2753 2613 0
2818 2754 2685 0
2782 2615 2783 0
2784 2783 2687 0
2819 2719 2664 0
2785 2664 2618 0
2757 2786 2577 0
2820 2720 2619 0
2787 2820 2619 0
2821 2758 2722 0
2789 2624 2623 0
2822 2723 2760 0
2822 2789 2723 0
2791 2790 2626 0
2823 2792 2694 0
2762 2727 2630 0
2763 2762 2695 0
2824 2764 2666 0
2765 2728 2667 0
2825 2767 2766 0
2794 2825 2766 0
2826 2794 2729 0
2827 2826 2729 0
2828 2729 2730 0
2828 2827 2729 0
2829 2730 2731 0
2830 2731 2795 0
2831 2733 2768 0
2832 2768 2769 0
2833 2769 2770 0
2834 2698 2699 0
2834 2770 2698 0
2835 2699 2735 0
2835 2834 2699 0
2836 2736 2701 0
2836 2796 2736 0
2836 2701 2797 0
2798 2836 2797 0
2799 2798 2771 0
2802 2800 2704 0
2837 2802 2801 0
2838 2801 2772 0
2839 2772 2738 0
2839 2838 2772 0
2840 2738 2773 0
2840 2839 2738 0
2841 2773 2803 0
2842 2677 2739 0
2842 2804 2677 0
2843 2739 2678 0
2843 2678 2707 0
2844 2843 2707 0
2844 2707 2740 0
2709 2805 2642 0
2845 2643 2644 0
2846 2741 2645 0
2847 2742 2743 0
2848 2743 2744 0
2808 2848 2744 0
2849 2646 2745 0
2849 2850 2646 0
2849 2745 2809 0
2851 2775 2648 0
2852 2710 2711 0
2812 2568 2777 0
2853 2714 2715 0
2816 2853 2715 0
2780 2816 2716 0
2854 2780 2717 0
2752 2855 2610 0
2817 2752 2611 0
2856 2685 2686 0
2856 2818 2685 0
2857 2688 2289 0
2819 2664 2785 0
2755 2858 2690 0
2756 2859 2755 0
2721 2787 2665 0
2821 2721 2758 0
2860 2788 2624 0
2861 2760 2691 0
2861 2822 2760 0
2861 2691 2761 0
2862 2692 2521 0
2628 2862 2521 0
2824 2666 2728 0
2863 2765 2793 0
2829 2828 2730 0
2864 2731 2830 0
2864 2829 2731 0
2830 2795 2732 0
2865 2831 2768 0
2832 2865 2768 0
2833 2832 2769 0
2866 2833 2770 0
2867 2835 2735 0
2867 2735 2796 0
2868 2796 2836 0
2869 2836 2798 0
2800 2798 2799 0
2870 2837 2801 0
2838 2870 2801 0
2871 2840 2773 0
2871 2839 2840 0
2841 2871 2773 0
2804 2841 2803 0
2872 2740 2708 0
2873 2708 2641 0
2805 2873 2641 0
2874 2507 2643 0
2874 2806 2507 0
2875 2644 2468 0
2875 2845 2644 0
2876 2508 2741 0
2876 2774 2508 0
2846 2876 2741 0
2850 2807 2646 0
2776 2851 2648 0
2877 2711 2712 0
2878 2712 2810 0
2878 2877 2712 0
2879 2811 2747 0
2879 2747 2651 0
2879 2651 2812 0
2880 2777 2779 0
2881 2778 2654 0
2882 2601 2656 0
2882 2656 2657 0
2813 2882 2657 0
2883 2658 2750 0
2884 2750 2572 0
2885 2572 2603 0
2815 2814 2659 0
2886 2713 2606 0
2886 2606 2714 0
2887 2816 2780 0
2888 2717 2751 0
2889 2751 2610 0
2889 2888 2751 0
2855 2889 2610 0
2890 2817 2753 0
2891 2781 2754 0
2818 2891 2754 0
2892 2784 2688 0
2893 2857 2289 0
2894 2616 2719 0
2895 2689 2690 0
2858 2895 2690 0
2786 2859 2756 0
2896 2757 2720 0
2897 2720 2820 0
2787 2897 2820 0
2821 2898 2721 0
2899 2722 2759 0
2900 2822 2861 0
2862 2628 2724 0
2725 2823 2694 0
2901 2726 2727 0
2902 2901 2727 0
2902 2727 2762 0
2903 2696 2764 0
2903 2763 2696 0
2904 2793 2668 0
2826 2825 2794 0
2905 2827 2828 0
2906 2732 2733 0
2907 2770 2834 0
2835 2907 2834 0
2908 2835 2867 0
2909 2867 2796 0
2868 2909 2796 0
2910 2798 2800 0
2911 2910 2800 0
2912 2800 2802 0
2912 2911 2800 0
2912 2802 2837 0
2913 2842 2739 0
2913 2739 2843 0
2914 2844 2740 0
2915 2805 2709 0
2916 2368 2535 0
2848 2847 2743 0
2917 2775 2851 0
2917 2809 2775 0
2852 2776 2710 0
2852 2711 2877 0
2918 2879 2812 0
2918 2812 2777 0
2919 2918 2777 0
2880 2779 2778 0
2920 2654 2748 0
2921 2749 2601 0
2884 2883 2750 0
2885 2884 2572 0
2814 2885 2603 0
2853 2886 2714 0
2922 2887 2780 0
2923 2854 2717 0
2888 2923 2717 0
2924 2889 2855 0
2925 2818 2856 0
2856 2686 2782 0
2616 2893 2289 0
2819 2926 2719 0
2927 2819 2785 0
2928 2859 2786 0
2929 2786 2757 0
2899 2821 2722 0
2788 2899 2759 0
2789 2930 2624 0
2931 2789 2822 0
2790 2861 2761 0
2791 2932 2790 0
2862 2791 2692 0
2933 2862 2724 0
2934 2823 2725 0
2935 2725 2726 0
2901 2935 2726 0
2903 2936 2763 0
2765 2824 2728 0
2937 2765 2863 0
2904 2863 2793 0
2938 2668 2767 0
2905 2826 2827 0
2939 2828 2829 0
2906 2830 2732 0
2831 2906 2733 0
2940 2831 2865 0
2941 2865 2832 0
2941 2940 2865 0
2833 2941 2832 0
2942 2866 2770 0
2907 2942 2770 0
2908 2907 2835 0
2909 2908 2867 0
2869 2868 2836 0
2870 2912 2837 0
2943 2838 2839 0
2943 2870 2838 0
2944 2839 2871 0
2944 2943 2839 0
2945 2804 2842 0
2945 2946 2804 0
2844 2913 2843 0
2947 2914 2740 0
2872 2947 2740 0
2916 2468 2368 0
2948 2846 2645 0
2949 2645 2742 0
2949 2948 2645 0
2950 2742 2847 0
2917 2951 2809 0
2952 2776 2852 0
2953 2852 2877 0
2953 2877 2878 0
2954 2810 2811 0
2954 2878 2810 0
2955 2811 2879 0
2880 2919 2777 0
2956 2920 2748 0
2956 2748 2749 0
2882 2921 2601 0
2957 2660 2713 0
2958 2887 2922 0
2854 2922 2780 0
2854 2958 2922 0
2889 2923 2888 0
2781 2890 2753 0
2959 2891 2818 0
2960 2856 2782 0
2960 2782 2783 0
2892 2783 2784 0
2857 2892 2688 0
2961 2857 2893 0
2895 2785 2689 0
2859 2962 2755 0
2929 2928 2786 0
2963 2929 2757 0
2896 2963 2757 0
2964 2896 2720 0
2964 2720 2897 0
2965 2787 2721 0
2965 2721 2898 0
2966 2899 2788 0
2860 2966 2788 0
2900 2931 2822 0
2932 2861 2790 0
2792 2933 2724 0
2967 2792 2823 0
2934 2967 2823 0
2968 2902 2762 0
2763 2968 2762 0
2824 2903 2764 0
2969 2824 2765 0
2938 2904 2668 0
2938 2767 2825 0
2970 2938 2825 0
2939 2905 2828 0
2864 2939 2829 0
2971 2864 2830 0
2971 2972 2864 0
2973 2830 2906 0
2942 2833 2866 0
2974 2908 2909 0
2975 2868 2869 0
2975 2909 2868 0
2976 2798 2910 0
2977 2871 2841 0
2977 2944 2871 0
2978 2841 2804 0
2978 2977 2841 0
2946 2978 2804 0
2979 2842 2913 0
2980 2913 2844 0
2981 2980 2844 0
2981 2844 2914 0
2947 2981 2914 0
2915 2873 2805 0
2982 2468 2916 0
2983 2595 2774 0
2950 2949 2742 0
2984 2808 2807 0
2951 2849 2809 0
2985 2917 2851 0
2986 2851 2776 0
2952 2986 2776 0
2955 2954 2811 0
2921 2956 2749 0
2987 2813 2571 0
2987 2571 2658 0
2957 2815 2660 0
2988 2957 2713 0
2988 2713 2886 0
2989 2853 2816 0
2923 2990 2854 0
2991 2889 2924 0
2992 2855 2752 0
2992 2924 2855 0
2817 2992 2752 0
2925 2959 2818 0
2993 2960 2783 0
2994 2783 2892 0
2994 2993 2783 0
2894 2893 2616 0
2926 2894 2719 0
2928 2995 2859 0
2996 2897 2787 0
2997 2787 2965 0
2998 2861 2932 0
2999 2932 2791 0
3000 2791 2862 0
3001 2935 2901 0
3002 2901 2902 0
2968 3002 2902 0
2968 2763 2936 0
3003 2936 2903 0
3004 2825 2826 0
3004 2970 2825 0
3004 2826 2905 0
2972 2939 2864 0
3005 2906 2831 0
3005 2831 2940 0
3006 2942 2907 0
2908 3006 2907 0
3007 2974 2909 0
3008 3007 2909 0
2975 3008 2909 0
3009 2869 2798 0
3009 2975 2869 0
2976 3009 2798 0
3010 2910 2911 0
3010 2976 2910 0
3011 2911 2912 0
3011 3010 2911 0
3012 2912 2870 0
3013 2870 2943 0
3013 3012 2870 0
2977 2943 2944 0
2979 2945 2842 0
2980 2979 2913 0
2806 2915 2709 0
2876 2983 2774 0
2984 2848 2808 0
3014 2984 2807 0
3015 2807 2850 0
3015 3014 2807 0
2951 2850 2849 0
3016 2951 2917 0
2985 2851 2986 0
3017 2952 2852 0
2918 2955 2879 0
2881 2880 2778 0
3018 2921 2882 0
3019 2884 2885 0
3020 2814 2815 0
3021 2988 2886 0
3021 2886 2853 0
3021 2853 2989 0
3021 2989 2816 0
2887 3021 2816 0
2990 2958 2854 0
3022 2923 2889 0
2991 3022 2889 0
3023 2817 2890 0
3023 2992 2817 0
3024 2890 2781 0
2891 3024 2781 0
3025 2925 2856 0
3026 2858 2755 0
3026 2895 2858 0
2995 2962 2859 0
2929 2995 2928 0
2963 2896 2964 0
3027 2899 2966 0
3028 2966 2860 0
3028 3027 2966 0
2930 2860 2624 0
3029 2789 2931 0
2998 2900 2861 0
3000 2999 2791 0
2967 2933 2792 0
3030 2934 2725 0
3031 2725 2935 0
3031 3030 2725 0
3002 3001 2901 0
3003 2968 2936 0
2969 2903 2824 0
2937 2969 2765 0
2971 2830 2973 0
3032 2941 2833 0
3033 3032 2833 0
2942 3033 2833 0
3034 3006 2908 0
3034 2908 2974 0
3007 3034 2974 0
3012 3011 2912 0
3035 2943 2977 0
3036 2977 2978 0
3037 3036 2978 0
3037 2978 2946 0
3038 2946 2945 0
3038 3037 2946 0
2979 3038 2945 0
3039 2979 2980 0
3039 2980 2981 0
3040 2981 2947 0
3041 2872 2708 0
2873 3041 2708 0
3042 2873 2915 0
3043 2535 2595 0
3043 2916 2535 0
2950 2948 2949 0
3044 2847 2848 0
3045 2850 2951 0
3046 3016 2917 0
3046 2917 2985 0
2953 3017 2852 0
3047 2880 2881 0
2813 3018 2882 0
3048 3021 2887 0
2958 3048 2887 0
3022 2990 2923 0
3049 2891 2959 0
2960 3025 2856 0
2961 2892 2857 0
3050 2819 2927 0
2996 2964 2897 0
2997 2996 2787 0
3051 2821 2899 0
3027 3051 2899 0
2930 3028 2860 0
3052 2930 2789 0
3029 3052 2789 0
3053 2931 2900 0
3054 3053 2900 0
3054 2900 2998 0
3055 2998 2932 0
2999 3055 2932 0
3056 3000 2862 0
3001 3031 2935 0
3003 3057 2968 0
2938 3058 2904 0
3059 2906 3005 0
2941 3005 2940 0
3060 2976 3010 0
3061 3010 3011 0
3062 3013 2943 0
3062 2943 3035 0
3036 3035 2977 0
3063 2947 2872 0
3063 3040 2947 0
3064 2915 2806 0
3065 2874 2643 0
2845 3065 2643 0
2982 2875 2468 0
3044 2950 2847 0
2984 3066 2848 0
3067 3014 3015 0
3045 3015 2850 0
3068 2985 2986 0
3068 2986 2952 0
3069 2878 2954 0
3070 2955 2918 0
3071 2918 2919 0
3072 3071 2919 0
3072 2919 2880 0
3073 2881 2654 0
3073 2654 2920 0
3074 2920 2956 0
2921 3074 2956 0
3075 2813 2987 0
3076 3075 2987 0
3076 2987 2658 0
3077 2658 2883 0
2884 3077 2883 0
3078 3019 2885 0
3079 2815 2957 0
3080 2988 3021 0
3081 2924 2992 0
3082 3023 2890 0
3024 3082 2890 0
3083 2993 2994 0
3083 2994 2892 0
3084 3083 2892 0
2961 3084 2892 0
2894 2961 2893 0
3085 2926 2819 0
3050 3085 2819 0
3086 2785 2895 0
3086 2927 2785 0
2962 3026 2755 0
3087 2995 2929 0
3088 2965 2898 0
3089 3052 3029 0
3053 3029 2931 0
2933 3056 2862 0
3090 2969 2937 0
2863 3090 2937 0
3058 2863 2904 0
3091 3058 2938 0
3092 2938 2970 0
3092 3091 2938 0
3093 2973 2906 0
3059 3093 2906 0
3094 3005 2941 0
3032 3094 2941 0
2942 3032 3033 0
3095 3006 3034 0
3096 3034 3007 0
3096 3007 3008 0
3097 3008 2975 0
3097 3096 3008 0
3098 2975 3009 0
3098 3009 2976 0
3060 3098 2976 0
3061 3060 3010 0
3099 3011 3012 0
3099 3061 3011 0
3100 3099 3012 0
3101 3012 3013 0
3101 3100 3012 0
3062 3101 3013 0
3102 3035 3036 0
3103 3036 3037 0
3103 3102 3036 0
3104 3038 2979 0
3039 3104 2979 0
3105 3039 2981 0
3105 2981 3040 0
3041 3063 2872 0
3106 2873 3042 0
3107 2806 2874 0
3108 2875 2982 0
3109 2876 2846 0
3109 2846 2948 0
3110 2948 2950 0
3111 2950 3044 0
3066 3044 2848 0
3067 2984 3014 0
3045 3067 3015 0
3112 3045 2951 0
3068 3046 2985 0
3113 2952 3017 0
3114 3017 2953 0
3115 3114 2953 0
3115 2953 2878 0
3069 2954 2955 0
3070 3069 2955 0
3047 3072 2880 0
3073 3047 2881 0
3116 2921 3018 0
3077 3076 2658 0
3117 3077 2884 0
3118 3117 2884 0
3119 2884 3019 0
3078 3119 3019 0
3120 2814 3020 0
3121 3020 2815 0
3122 2957 2988 0
3122 2988 3080 0
3080 3021 3048 0
3123 3048 2958 0
2990 3123 2958 0
3081 2991 2924 0
3082 3124 3023 0
3125 2960 2993 0
3083 3125 2993 0
3126 2961 2894 0
3127 3050 2927 0
2963 3087 2929 0
3088 2898 2821 0
3128 3088 2821 0
3051 3128 2821 0
3129 2998 3055 0
3130 2999 3000 0
3131 2933 2967 0
3132 2934 3030 0
3133 3002 2968 0
3133 2968 3057 0
3134 3003 2903 0
3134 2903 2969 0
3135 2863 3058 0
3136 3058 3091 0
3137 3004 2905 0
3138 2972 2971 0
2973 3093 2971 0
3139 3032 2942 0
3095 2942 3006 0
3140 3034 3096 0
3141 2975 3098 0
3141 3097 2975 0
3101 3099 3100 0
3142 3101 3062 0
3143 3142 3062 0
3143 3062 3035 0
3102 3143 3035 0
3144 3103 3037 0
3145 3144 3037 0
3145 3037 3038 0
3104 3145 3038 0
3146 3104 3039 0
3147 3041 2873 0
3106 3147 2873 0
3148 2806 3107 0
3148 3064 2806 0
3065 3107 2874 0
2916 3108 2982 0
3110 3109 2948 0
3111 3149 2950 0
3150 3111 3044 0
3151 3068 2952 0
3113 3151 2952 0
3069 3115 2878 0
3071 3070 2918 0
3074 3073 2920 0
3152 3074 2921 0
3152 2921 3116 0
3153 3116 3018 0
3153 3018 2813 0
3119 3118 2884 0
3154 2814 3120 0
3079 3121 2815 0
3122 3079 2957 0
3155 3080 3048 0
3156 3022 2991 0
3157 3156 2991 0
3124 2992 3023 0
3124 3081 2992 0
3158 3082 3024 0
3159 3024 2891 0
3159 3158 3024 0
3049 3159 2891 0
2925 3049 2959 0
3086 3127 2927 0
3026 3086 2895 0
3160 3051 3027 0
3028 3160 3027 0
3161 3028 2930 0
3052 3161 2930 0
3162 3053 3054 0
3129 3054 2998 0
3129 3162 3054 0
3163 3130 3000 0
3056 3163 3000 0
3164 3056 2933 0
3131 2967 2934 0
3165 3131 2934 0
3133 3001 3002 0
3166 3057 3003 0
3167 3134 2969 0
3168 3169 2969 0
3168 2969 3090 0
3168 3090 2863 0
3170 3168 2863 0
3136 3135 3058 0
3092 3136 3091 0
3171 3092 2970 0
3171 2970 3004 0
3172 3137 2905 0
3093 3138 2971 0
3094 3059 3005 0
3173 2942 3095 0
3173 3139 2942 0
3140 3095 3034 0
3174 3098 3060 0
3175 3060 3061 0
3176 3099 3101 0
3144 3102 3103 0
3146 3145 3104 0
3177 3146 3039 0
3105 3177 3039 0
3147 3063 3041 0
3178 3108 2916 0
3179 2595 2983 0
3149 3110 2950 0
3180 3044 3066 0
3180 3150 3044 0
3181 2984 3067 0
3182 3067 3045 0
3183 2951 3016 0
3183 3112 2951 0
3183 3016 3046 0
3184 3046 3068 0
3151 3184 3068 0
3185 3113 3017 0
3186 3115 3069 0
3187 3072 3047 0
3188 3047 3073 0
3189 3073 3074 0
3152 3189 3074 0
3153 3152 3116 0
3190 3153 2813 0
3117 3076 3077 0
3154 3078 2885 0
3154 2885 2814 0
3121 3120 3020 0
3191 3122 3080 0
3192 3081 3124 0
3193 3084 2961 0
3126 3193 2961 0
3194 3085 3050 0
3194 3050 3127 0
3195 3026 2962 0
3196 2964 2996 0
3197 3089 3029 0
3198 2999 3130 0
3132 3165 2934 0
3134 3166 3003 0
3169 3167 2969 0
3135 3170 2863 0
3199 3135 3136 0
3137 3171 3004 0
2939 3172 2905 0
3200 3094 3032 0
3139 3200 3032 0
3201 3095 3140 0
3202 3140 3096 0
3203 3141 3098 0
3203 3097 3141 0
3175 3174 3060 0
3204 3061 3099 0
3204 3175 3061 0
3176 3204 3099 0
3205 3101 3142 0
3205 3176 3101 0
3143 3205 3142 0
3206 3102 3144 0
3207 3145 3146 0
3105 3146 3177 0
3208 3040 3063 0
3208 3105 3040 0
3209 3063 3147 0
3064 3042 2915 0
3210 2845 2875 0
3108 3210 2875 0
3149 3111 3150 0
3181 3066 2984 0
3114 3115 3186 0
3211 3069 3070 0
3212 3070 3071 0
3213 3214 3071 0
3213 3071 3072 0
3187 3213 3072 0
3188 3187 3047 0
3215 2813 3075 0
3215 3190 2813 0
3215 3075 3076 0
3119 3117 3118 0
3216 3080 3155 0
3216 3191 3080 0
3123 3155 3048 0
3217 3123 2990 0
3218 2990 3022 0
3219 3157 2991 0
3219 2991 3081 0
3192 3219 3081 0
3220 3192 3124 0
3220 3124 3082 0
3158 3220 3082 0
3221 3049 2925 0
3025 3221 2925 0
3222 3025 2960 0
3125 3222 2960 0
3223 3125 3083 0
3224 3083 3084 0
3225 3126 2894 0
3226 2894 2926 0
3085 3226 2926 0
3227 3195 2962 0
3227 2962 2995 0
3228 2995 3087 0
3053 3197 3029 0
3198 3055 2999 0
3163 3198 3130 0
3165 3229 3131 0
3031 3132 3030 0
3230 3031 3001 0
3133 3230 3001 0
3231 3133 3057 0
3166 3231 3057 0
3232 3170 3135 0
3199 3232 3135 0
3233 3092 3171 0
3234 3172 2939 0
3235 2939 2972 0
3236 2972 3138 0
3237 3093 3059 0
3238 3094 3200 0
3239 3173 3095 0
3240 3239 3095 0
3202 3201 3140 0
3241 3096 3097 0
3241 3202 3096 0
3203 3241 3097 0
3242 3203 3098 0
3174 3242 3098 0
3243 3204 3176 0
3244 3243 3176 0
3205 3244 3176 0
3245 3143 3102 0
3206 3245 3102 0
3246 3146 3105 0
3106 3209 3147 0
3247 3042 3064 0
3179 3043 2595 0
3248 3066 3181 0
3248 3180 3066 0
3249 3182 3045 0
3249 3045 3112 0
3250 3046 3184 0
3251 3184 3151 0
3185 3151 3113 0
3186 3069 3211 0
3212 3211 3070 0
3214 3212 3071 0
3252 3213 3187 0
3253 3215 3076 0
3254 3076 3117 0
3217 3155 3123 0
3218 3022 3156 0
3255 3159 3049 0
3255 3158 3159 0
3224 3223 3083 0
3256 3193 3126 0
3225 3256 3126 0
3226 3225 2894 0
3257 3127 3086 0
3257 3194 3127 0
3258 3086 3026 0
3195 3258 3026 0
3259 2964 3196 0
3260 3160 3028 0
3161 3260 3028 0
3089 3161 3052 0
3261 3197 3053 0
3262 3053 3162 0
3263 3262 3162 0
3263 3162 3129 0
3264 3129 3055 0
3198 3264 3055 0
3265 3163 3056 0
3164 3265 3056 0
3131 3164 2933 0
3266 3165 3132 0
3267 3166 3134 0
3268 3167 3169 0
3168 3268 3169 0
3269 3168 3170 0
3270 3232 3199 0
3271 3199 3136 0
3271 3270 3199 0
3233 3271 3136 0
3233 3136 3092 0
3272 3171 3137 0
3172 3272 3137 0
3234 2939 3235 0
3236 3235 2972 0
3236 3138 3093 0
3237 3273 3093 0
3274 3059 3094 0
3274 3237 3059 0
3238 3275 3094 0
3276 3200 3139 0
3276 3238 3200 0
3173 3276 3139 0
3277 3239 3240 0
3278 3095 3201 0
3278 3240 3095 0
3279 3175 3204 0
3279 3174 3175 0
3243 3279 3204 0
3280 3205 3143 0
3280 3143 3245 0
3281 3144 3145 0
3281 3206 3144 0
3207 3281 3145 0
3282 3146 3246 0
3105 3282 3246 0
3208 3283 3105 0
3284 3209 3106 0
3148 3247 3064 0
3285 2876 3109 0
3286 3109 3110 0
