#!ascii version written be Caret
6100 12196
4724 4647 4670 0
4698 4670 4545 0
4699 4698 4574 0
4725 4699 4600 0
4725 4600 4648 0
4726 4648 4649 0
4650 4726 4649 0
4671 4650 4575 0
4727 4700 4651 0
4727 4651 4626 0
4652 4701 4526 0
4702 4652 4577 0
4578 4672 4423 0
4728 4627 4579 0
4628 4728 4579 0
4729 4581 4547 0
4730 4456 4552 0
4706 4730 4552 0
4706 4553 4675 0
4731 4707 4657 0
4732 4731 4657 0
4732 4657 4708 0
4733 4676 4633 0
4709 4733 4633 0
4734 4679 4712 0
4735 4612 4636 0
4613 4735 4636 0
4736 4713 4559 0
4736 4559 4658 0
4737 4736 4658 0
4738 4658 4680 0
4738 4737 4658 0
4714 4738 4680 0
4715 4682 4659 0
4739 4683 4590 0
4739 4590 4660 0
4716 4591 4592 0
4740 4716 4637 0
4741 4620 4690 0
4741 4719 4620 0
4742 4570 4519 0
4743 4519 4639 0
4744 4440 4595 0
4667 4744 4595 0
4745 4621 4541 0
4745 4541 4692 0
4721 4693 4443 0
4746 4721 4596 0
4747 4623 4644 0
4668 4747 4644 0
4748 4668 4645 0
4749 4543 4470 0
4750 4696 4598 0
4750 4598 4697 0
4751 4670 4698 0
4751 4724 4670 0
4726 4725 4648 0
4671 4752 4650 0
4753 4576 4700 0
4753 4671 4576 0
4754 4753 4700 0
4727 4626 4701 0
4652 4727 4701 0
4755 4672 4578 0
4755 4578 4653 0
4756 4653 4627 0
4728 4756 4627 0
4757 4603 4452 0
4546 4757 4452 0
4729 4580 4581 0
4758 4729 4547 0
4758 4547 4604 0
4759 4758 4604 0
4760 4630 4606 0
4761 4608 4607 0
4531 4761 4607 0
4762 4551 4674 0
4762 4582 4551 0
4763 4708 4586 0
4763 4586 4676 0
4733 4763 4676 0
4764 4733 4709 0
4765 4735 4613 0
4765 4613 4713 0
4739 4715 4683 0
4685 4684 4513 0
4766 4564 4661 0
4767 4637 4662 0
4768 4663 4664 0
4769 4687 4665 0
4717 4665 4567 0
4617 4638 4568 0
4770 4771 4617 0
4770 4617 4666 0
4772 4666 4689 0
4773 4689 4718 0
4774 4718 4619 0
4774 4773 4718 0
4719 4774 4619 0
4741 4690 4570 0
4742 4741 4570 0
4744 4720 4440 0
4775 4667 4571 0
4776 4571 4691 0
4622 4692 4542 0
4722 4643 4523 0
4722 4777 4643 0
4778 4624 4646 0
4779 4646 4669 0
4749 4470 4723 0
4697 4599 4724 0
4752 4726 4650 0
4780 4752 4671 0
4652 4781 4727 0
4782 4781 4652 0
4782 4652 4702 0
4756 4755 4653 0
4783 4728 4628 0
4784 4703 4629 0
4784 4628 4703 0
4785 4629 4603 0
4654 4786 4704 0
4787 4654 4580 0
4729 4787 4580 0
4759 4604 4605 0
4788 4605 4630 0
4788 4630 4760 0
4655 4760 4606 0
4789 4608 4761 0
4790 4550 4582 0
4791 4674 4456 0
4792 4706 4675 0
4792 4675 4631 0
4793 4792 4631 0
4793 4631 4707 0
4794 4793 4707 0
4795 4707 4731 0
4796 4731 4732 0
4796 4795 4731 0
4797 4764 4709 0
4797 4709 4710 0
4798 4710 4634 0
4799 4634 4711 0
4678 4799 4711 0
4800 4678 4679 0
4801 4712 4612 0
4735 4801 4612 0
4802 4765 4713 0
4803 4713 4736 0
4803 4802 4713 0
4714 4804 4738 0
4805 4682 4715 0
4806 4715 4739 0
4807 4739 4660 0
4807 4660 4684 0
4808 4807 4684 0
4685 4808 4684 0
4809 4685 4563 0
4810 4563 4564 0
4766 4810 4564 0
4811 4686 4591 0
4811 4591 4716 0
4767 4740 4637 0
4812 4662 4663 0
4813 4768 4664 0
4813 4664 4687 0
4769 4814 4687 0
4771 4638 4617 0
4772 4770 4666 0
4815 4742 4519 0
4815 4519 4743 0
4720 4640 4641 0
4816 4691 4621 0
4745 4816 4621 0
4817 4692 4622 0
4818 4622 4521 0
4819 4818 4521 0
4819 4521 4693 0
4642 4820 4597 0
4643 4821 4642 0
4778 4645 4624 0
4779 4778 4646 0
4822 4695 4543 0
4750 4723 4696 0
4823 4697 4724 0
4824 4724 4751 0
4824 4751 4698 0
4825 4699 4725 0
4825 4826 4699 0
4827 4725 4726 0
4828 4726 4752 0
4753 4780 4671 0
4727 4754 4700 0
4829 4672 4755 0
4784 4783 4628 0
4785 4784 4629 0
4830 4546 4704 0
4705 4761 4531 0
4831 4705 4532 0
4832 4550 4790 0
4832 4533 4550 0
4762 4674 4791 0
4791 4456 4730 0
4794 4707 4795 0
4833 4732 4708 0
4763 4833 4708 0
4834 4764 4797 0
4834 4797 4710 0
4798 4834 4710 0
4835 4678 4800 0
4734 4800 4679 0
4801 4734 4712 0
4836 4735 4765 0
4802 4836 4765 0
4803 4736 4737 0
4804 4737 4738 0
4837 4681 4682 0
4837 4714 4681 0
4806 4805 4715 0
4838 4808 4685 0
4838 4685 4809 0
4810 4809 4563 0
4839 4661 4686 0
4811 4839 4686 0
4840 4811 4716 0
4840 4716 4740 0
4841 4767 4662 0
4768 4812 4663 0
4814 4813 4687 0
4769 4665 4717 0
4772 4689 4773 0
4842 4774 4719 0
4741 4842 4719 0
4843 4744 4667 0
4775 4843 4667 0
4776 4775 4571 0
4816 4776 4691 0
4818 4817 4622 0
4694 4746 4596 0
4820 4694 4597 0
4821 4820 4642 0
4844 4722 4623 0
4845 4668 4748 0
4845 4747 4668 0
4846 4645 4778 0
4847 4779 4669 0
4695 4847 4669 0
4749 4822 4543 0
4848 4750 4697 0
4823 4848 4697 0
4824 4823 4724 0
4826 4698 4699 0
4826 4824 4698 0
4849 4827 4726 0
4828 4849 4726 0
4850 4753 4754 0
4851 4754 4727 0
4852 4782 4702 0
4829 4702 4672 0
4783 4756 4728 0
4757 4785 4603 0
4830 4757 4546 0
4787 4786 4654 0
4853 4605 4788 0
4853 4759 4605 0
4854 4655 4608 0
4789 4854 4608 0
4831 4532 4673 0
4832 4455 4533 0
4855 4790 4582 0
4856 4706 4792 0
4856 4792 4793 0
4857 4856 4793 0
4858 4793 4794 0
4858 4857 4793 0
4859 4795 4796 0
4796 4732 4833 0
4733 4860 4763 0
4861 4834 4798 0
4798 4634 4799 0
4835 4799 4678 0
4862 4801 4735 0
4805 4837 4682 0
4863 4739 4807 0
4863 4806 4739 0
4864 4807 4808 0
4865 4838 4809 0
4661 4810 4766 0
4866 4661 4839 0
4867 4740 4767 0
4841 4867 4767 0
4868 4662 4812 0
4868 4841 4662 0
4869 4717 4688 0
4870 4688 4638 0
4871 4770 4772 0
4871 4771 4770 0
4872 4741 4742 0
4873 4639 4640 0
4874 4720 4744 0
4875 4745 4692 0
4875 4692 4817 0
4876 4693 4721 0
4876 4819 4693 0
4746 4876 4721 0
4747 4844 4623 0
4846 4748 4645 0
4847 4778 4779 0
4848 4723 4750 0
4825 4725 4827 0
4877 4828 4752 0
4878 4851 4727 0
4829 4852 4702 0
4786 4830 4704 0
4879 4760 4655 0
4880 4673 4455 0
4855 4582 4762 0
4881 4762 4791 0
4882 4791 4730 0
4882 4881 4791 0
4883 4794 4795 0
4883 4795 4859 0
4860 4833 4763 0
4884 4733 4764 0
4799 4861 4798 0
4885 4799 4835 0
4885 4835 4800 0
4886 4885 4800 0
4886 4800 4734 0
4887 4734 4801 0
4836 4862 4735 0
4888 4803 4737 0
4889 4737 4804 0
4864 4863 4807 0
4838 4864 4808 0
4810 4865 4809 0
4868 4812 4768 0
4870 4869 4688 0
4890 4772 4773 0
4891 4842 4741 0
4815 4872 4742 0
4892 4815 4743 0
4639 4892 4743 0
4720 4873 4640 0
4843 4874 4744 0
4893 4818 4819 0
4820 4746 4694 0
4777 4821 4643 0
4894 4749 4723 0
4895 4723 4848 0
4896 4827 4849 0
4897 4849 4828 0
4877 4897 4828 0
4898 4752 4780 0
4850 4780 4753 0
4850 4898 4780 0
4851 4850 4754 0
4852 4781 4782 0
4899 4852 4829 0
4854 4879 4655 0
4900 4761 4705 0
4880 4455 4832 0
4882 4730 4706 0
4901 4706 4856 0
4901 4882 4706 0
4902 4857 4858 0
4902 4858 4794 0
4883 4902 4794 0
4903 4859 4796 0
4903 4796 4833 0
4884 4860 4733 0
4904 4834 4861 0
4885 4861 4799 0
4887 4886 4734 0
4905 4887 4801 0
4905 4801 4862 0
4906 4862 4836 0
4907 4836 4802 0
4907 4906 4836 0
4803 4907 4802 0
4889 4888 4737 0
4908 4714 4837 0
4909 4840 4740 0
4867 4909 4740 0
4910 4813 4814 0
4910 4814 4769 0
4771 4870 4638 0
4911 4771 4871 0
4912 4773 4774 0
4912 4774 4842 0
4872 4891 4741 0
4913 4872 4815 0
4776 4843 4775 0
4914 4816 4745 0
4875 4914 4745 0
4915 4817 4818 0
4893 4915 4818 0
4916 4778 4847 0
4695 4916 4847 0
4822 4917 4695 0
4895 4894 4723 0
4918 4895 4848 0
4918 4848 4823 0
4896 4825 4827 0
4897 4896 4849 0
4898 4877 4752 0
4919 4878 4727 0
4919 4727 4781 0
4920 4830 4786 0
4921 4787 4729 0
4922 4729 4758 0
4900 4705 4831 0
4880 4831 4673 0
4923 4882 4901 0
4924 4856 4857 0
4924 4901 4856 0
4925 4883 4859 0
4903 4925 4859 0
4926 4903 4833 0
4926 4833 4860 0
4927 4860 4884 0
4904 4764 4834 0
4905 4886 4887 0
4928 4907 4803 0
4928 4929 4907 0
4928 4803 4888 0
4889 4930 4888 0
4908 4804 4714 0
4931 4865 4810 0
4931 4810 4661 0
4866 4931 4661 0
4932 4811 4840 0
4933 4867 4841 0
4869 4769 4717 0
4911 4870 4771 0
4934 4871 4772 0
4934 4772 4890 0
4935 4890 4773 0
4935 4773 4912 0
4891 4912 4842 0
4936 4891 4872 0
4913 4936 4872 0
4913 4815 4892 0
4937 4892 4639 0
4873 4937 4639 0
4816 4938 4776 0
4939 4875 4817 0
4846 4845 4748 0
4916 4940 4778 0
4917 4916 4695 0
4941 4822 4749 0
4942 4749 4894 0
4943 4823 4824 0
4944 4824 4826 0
4945 4826 4825 0
4946 4781 4852 0
4946 4919 4781 0
4947 4755 4756 0
4948 4786 4787 0
4948 4920 4786 0
4949 4921 4729 0
4950 4758 4759 0
4950 4759 4853 0
4951 4879 4854 0
4952 4854 4789 0
4952 4951 4854 0
4953 4855 4762 0
4924 4857 4902 0
4926 4954 4903 0
4927 4926 4860 0
4955 4884 4764 0
4904 4955 4764 0
4956 4861 4885 0
4957 4886 4905 0
4906 4905 4862 0
4929 4906 4907 0
4928 4888 4930 0
4958 4804 4908 0
4908 4837 4805 0
4959 4908 4805 0
4806 4959 4805 0
4863 4960 4806 0
4961 4863 4864 0
4865 4962 4838 0
4933 4963 4867 0
4868 4933 4841 0
4964 4868 4768 0
4965 4964 4768 0
4966 4813 4910 0
4967 4769 4869 0
4968 4869 4870 0
4969 4870 4911 0
4970 4913 4892 0
4937 4970 4892 0
4971 4843 4776 0
4938 4971 4776 0
4915 4939 4817 0
4876 4893 4819 0
4972 4746 4820 0
4972 4820 4821 0
4973 4844 4747 0
4973 4747 4845 0
4940 4846 4778 0
4941 4917 4822 0
4942 4941 4749 0
4918 4894 4895 0
4944 4943 4824 0
4945 4944 4826 0
4974 4898 4850 0
4946 4852 4899 0
4947 4829 4755 0
4975 4947 4756 0
4975 4756 4783 0
4976 4948 4787 0
4976 4787 4921 0
4977 4921 4949 0
4922 4949 4729 0
4879 4788 4760 0
4978 4789 4761 0
4900 4978 4761 0
4953 4762 4881 0
4923 4881 4882 0
4925 4902 4883 0
4954 4925 4903 0
4955 4927 4884 0
4979 4904 4861 0
4979 4861 4956 0
4957 4885 4886 0
4980 4957 4905 0
4981 4980 4905 0
4981 4905 4906 0
4929 4982 4906 0
4983 4929 4928 0
4984 4889 4804 0
4960 4959 4806 0
4961 4864 4838 0
4962 4961 4838 0
4931 4962 4865 0
4985 4931 4866 0
4986 4839 4811 0
4909 4932 4840 0
4963 4909 4867 0
4965 4768 4813 0
4967 4869 4968 0
4914 4938 4816 0
4987 4915 4893 0
4987 4939 4915 0
4988 4876 4746 0
4989 4777 4722 0
4990 4845 4846 0
4991 4918 4823 0
4943 4991 4823 0
4896 4945 4825 0
4897 4877 4898 0
4974 4992 4898 0
4851 4974 4850 0
4993 4851 4878 0
4994 4975 4783 0
4995 4783 4784 0
4977 4976 4921 0
4996 4922 4758 0
4996 4758 4950 0
4997 4901 4924 0
4998 4924 4902 0
4999 4998 4902 0
4999 4902 4925 0
5000 4999 4925 0
5000 4925 4954 0
5001 4955 4904 0
4979 5001 4904 0
5002 4956 4885 0
4957 5002 4885 0
4982 4981 4906 0
5003 4982 4929 0
4983 5003 4929 0
5004 4930 4889 0
4959 4958 4908 0
4986 4811 4932 0
5005 4909 4963 0
5006 4933 4868 0
4964 5006 4868 0
4966 4965 4813 0
5007 4910 4769 0
5008 4968 4870 0
4969 5008 4870 0
5009 4969 4911 0
5009 4911 4871 0
4934 5009 4871 0
5010 4934 4890 0
5011 4890 4935 0
5011 4935 4912 0
5012 4970 4937 0
5013 4937 4873 0
5014 4873 4720 0
4939 5015 4875 0
5016 4746 4972 0
5017 4821 4777 0
4989 5017 4777 0
5018 4722 4844 0
4973 5018 4844 0
4990 4973 4845 0
4992 4897 4898 0
4993 4878 4919 0
5019 4919 4946 0
5019 4993 4919 0
5020 4946 4899 0
4995 4994 4783 0
4976 4920 4948 0
5021 4853 4788 0
5022 4832 4790 0
4997 4923 4901 0
4998 4999 5000 0
5023 4954 4926 0
4927 5023 4926 0
5024 4955 5001 0
4980 5002 4957 0
5025 4981 4982 0
5026 4983 4928 0
5027 5026 4928 0
5027 4928 4930 0
5004 5027 4930 0
4984 5004 4889 0
4958 4984 4804 0
5028 4958 4959 0
5029 4962 4931 0
4985 5029 4931 0
4985 4866 4839 0
5030 4986 4932 0
5031 5005 4963 0
5031 4963 4933 0
5007 4966 4910 0
5032 4769 4967 0
5008 4967 4968 0
5011 5010 4890 0
5033 5011 4912 0
5033 4912 4891 0
4936 5033 4891 0
5034 4971 4938 0
5034 4938 4914 0
5015 4914 4875 0
4940 4990 4846 0
5035 4940 4916 0
5036 4916 4917 0
5037 4917 4941 0
5038 4941 4942 0
5039 4894 4918 0
5040 4991 4943 0
5041 4944 4945 0
4974 4851 4993 0
5042 4899 4829 0
5042 5020 4899 0
5042 4829 4947 0
4785 4995 4784 0
5043 4785 4757 0
4920 5044 4830 0
5045 4920 4976 0
4996 4949 4922 0
5046 4788 4879 0
5046 5021 4788 0
5047 4879 4951 0
4978 4952 4789 0
5048 4831 4880 0
5022 4790 4855 0
5049 5022 4855 0
4953 5049 4855 0
5050 4953 4881 0
5050 4881 4923 0
5051 5050 4923 0
5051 4923 4997 0
4997 4924 4998 0
5052 4998 5000 0
5053 5052 5000 0
5053 5000 4954 0
5053 4954 5023 0
5054 4955 5024 0
4979 5024 5001 0
5055 5002 4980 0
4981 5055 4980 0
5003 5025 4982 0
5026 5003 4983 0
5056 5028 4959 0
4960 5056 4959 0
5057 4960 4863 0
5057 4863 4961 0
4839 5058 4985 0
5030 4839 4986 0
5030 5058 4839 0
5005 4932 4909 0
5059 4933 5006 0
5060 5006 4964 0
5060 5059 5006 0
5061 4964 4965 0
5061 5060 4964 0
4966 5061 4965 0
5032 5007 4769 0
5062 5009 4934 0
5010 5062 4934 0
5063 4913 4970 0
5012 5063 4970 0
5013 5012 4937 0
5014 5013 4873 0
5014 4720 4874 0
5064 4843 4971 0
5016 4988 4746 0
5065 4990 4940 0
5066 5035 4916 0
5036 5066 4916 0
5067 5036 4917 0
5067 4917 5037 0
5068 5037 4941 0
5068 4941 5038 0
5069 5038 4942 0
5069 4942 4894 0
5070 5069 4894 0
5071 5039 4918 0
5071 4918 4991 0
5040 5071 4991 0
5041 4943 4944 0
5041 4945 4896 0
5072 4896 4897 0
5073 4897 4992 0
5074 4992 4974 0
5075 4974 4993 0
5019 5075 4993 0
5076 5019 4946 0
5077 5042 4947 0
5077 4947 4975 0
4994 5077 4975 0
5078 4994 4995 0
5079 4757 4830 0
5044 5079 4830 0
5080 5045 4976 0
5080 4976 4977 0
5080 4977 4949 0
5081 4950 4853 0
5081 4853 5021 0
5048 5082 4831 0
5083 4880 4832 0
5084 5083 4832 0
5084 4832 5022 0
5050 5049 4953 0
5085 5051 4997 0
5086 4997 4998 0
5052 5086 4998 0
5087 5023 4927 0
5087 4927 4955 0
5087 4955 5054 0
5088 5024 4979 0
5055 5088 4979 0
5055 4979 4956 0
5055 4956 5002 0
5089 5055 4981 0
5025 5089 4981 0
5090 4984 4958 0
5090 4958 5028 0
5091 5090 5028 0
5091 5028 5056 0
5092 5056 4960 0
5093 4961 4962 0
5094 5093 4962 0
5094 4962 5029 0
5058 5029 4985 0
5058 5094 5029 0
5095 5030 4932 0
5095 4932 5005 0
5096 5032 4967 0
5008 5096 4967 0
5097 5008 4969 0
5098 4969 5009 0
5098 5097 4969 0
5099 5010 5011 0
5100 5099 5011 0
5033 5100 5011 0
5101 5033 4936 0
5102 4936 4913 0
5063 5102 4913 0
5103 5015 4939 0
4987 5103 4939 0
5104 4893 4876 0
5105 4821 5017 0
5105 4972 4821 0
5106 5017 4989 0
5106 4989 4722 0
5107 5106 4722 0
5107 4722 5018 0
5108 5018 4973 0
5108 4973 4990 0
5065 5108 4990 0
5035 5065 4940 0
5109 5067 5037 0
5110 4894 5039 0
5110 5070 4894 0
5111 5041 4896 0
5073 5072 4897 0
5075 5074 4974 0
5112 5076 4946 0
5112 4946 5020 0
5112 5020 5042 0
5079 5043 4757 0
5113 4920 5045 0
5113 5044 4920 0
5114 5080 4949 0
5115 4949 4996 0
5115 5114 4949 0
5116 5081 5021 0
5117 4879 5047 0
5082 4900 4831 0
5118 4880 5083 0
5118 5048 4880 0
5050 5051 5085 0
5086 5085 4997 0
5119 5086 5052 0
5119 5052 5053 0
5120 5053 5023 0
5121 5120 5023 0
5121 5023 5087 0
5121 5087 5054 0
5122 5054 5024 0
5088 5122 5024 0
5090 5123 4984 0
5092 5091 5056 0
5124 4960 5057 0
5124 5092 4960 0
5125 5057 4961 0
5125 4961 5093 0
5094 5125 5093 0
5126 5031 4933 0
5059 5126 4933 0
5127 5007 5032 0
5096 5127 5032 0
5097 5096 5008 0
5099 5062 5010 0
5101 5100 5033 0
5102 5101 4936 0
5128 5063 5012 0
5129 5064 4971 0
5130 4971 5034 0
5131 4914 5015 0
5131 5034 4914 0
5132 4876 4988 0
5132 5104 4876 0
5105 5016 4972 0
5067 5066 5036 0
5068 5109 5037 0
5069 5068 5038 0
5110 5069 5070 0
5133 5039 5071 0
5133 5071 5040 0
5134 4992 5074 0
5134 5073 4992 0
5075 5134 5074 0
5135 5075 5019 0
5136 5112 5042 0
5077 5136 5042 0
5137 5043 5079 0
5138 5079 5044 0
5113 5138 5044 0
5139 4996 4950 0
5139 5115 4996 0
5140 4950 5081 0
5140 5139 4950 0
5141 5021 5046 0
5141 5116 5021 0
5141 5046 4879 0
5117 5141 4879 0
4900 4952 4978 0
5142 5082 5048 0
5143 5022 5049 0
5144 5049 5050 0
5145 5085 5086 0
5119 5145 5086 0
5120 5119 5053 0
5122 5146 5054 0
5147 5088 5055 0
5148 5147 5055 0
5148 5055 5089 0
5148 5089 5025 0
5149 5148 5025 0
5150 5149 5025 0
5150 5025 5003 0
5151 5003 5026 0
5152 5026 5027 0
5152 5027 5004 0
5123 5152 5004 0
5123 5004 4984 0
5153 5125 5094 0
5058 5153 5094 0
5154 5095 5005 0
5155 5005 5031 0
5155 5154 5005 0
5156 5126 5059 0
5060 5156 5059 0
5157 5061 4966 0
5158 5009 5062 0
5158 5098 5009 0
5159 5101 5102 0
5128 5102 5063 0
5128 5160 5102 0
5013 5128 5012 0
5161 5013 5014 0
5162 5014 4874 0
5162 4874 4843 0
5163 4843 5064 0
5163 5162 4843 0
5130 5129 4971 0
5131 5130 5034 0
5164 5103 4987 0
5164 4987 4893 0
5164 4893 5104 0
5165 4988 5016 0
5108 5107 5018 0
5166 5065 5035 0
5066 5166 5035 0
5167 5110 5039 0
5133 5167 5039 0
5168 4943 5041 0
5168 5041 5111 0
5169 4896 5072 0
5169 5111 4896 0
5170 5072 5073 0
5076 5135 5019 0
5171 4785 5043 0
5171 4995 4785 0
5137 5171 5043 0
5114 5172 5080 0
5173 4951 4952 0
5173 5047 4951 0
5118 5142 5048 0
5143 5084 5022 0
5174 5050 5085 0
5174 5144 5050 0
5175 5174 5085 0
5175 5085 5145 0
5176 5145 5119 0
5120 5176 5119 0
5146 5121 5054 0
5146 5122 5088 0
5177 5146 5088 0
5177 5088 5147 0
5151 5150 5003 0
5178 5091 5092 0
5124 5178 5092 0
5179 5124 5057 0
5179 5057 5125 0
5180 5153 5058 0
5030 5180 5058 0
5155 5031 5126 0
5181 5156 5060 0
5182 5181 5060 0
5182 5060 5061 0
5157 5182 5061 0
5183 5157 4966 0
5183 4966 5007 0
5184 5062 5099 0
5160 5159 5102 0
5161 5014 5162 0
5103 5131 5015 0
5165 5132 4988 0
5105 5165 5016 0
5185 5108 5065 0
5186 5066 5067 0
5187 5109 5068 0
5188 5068 5069 0
5188 5187 5068 0
5189 5040 4943 0
5189 5133 5040 0
5189 4943 5168 0
5190 5168 5111 0
5170 5169 5072 0
5191 5135 5076 0
5192 5076 5112 0
5192 5191 5076 0
5136 5192 5112 0
5193 5136 5077 0
5193 5077 4994 0
5194 5171 5137 0
5194 5137 5079 0
5194 5079 5138 0
5195 5045 5080 0
5196 5117 5047 0
5196 5141 5117 0
5197 5173 4952 0
5197 4952 4900 0
5198 4900 5082 0
5199 5083 5084 0
5200 5084 5143 0
5200 5143 5049 0
5201 5200 5049 0
5201 5049 5144 0
5201 5144 5174 0
5202 5176 5120 0
5203 5202 5120 0
5204 5120 5121 0
5205 5121 5146 0
5206 5150 5151 0
5206 5151 5026 0
5206 5026 5152 0
5207 5152 5123 0
5207 5208 5152 0
5209 5123 5090 0
5209 5090 5091 0
5210 5209 5091 0
5210 5091 5178 0
5179 5178 5124 0
5211 5179 5125 0
5212 5125 5153 0
5213 5180 5030 0
5213 5030 5095 0
5154 5213 5095 0
5155 5214 5154 0
5215 5126 5156 0
5181 5215 5156 0
5127 5183 5007 0
5216 5097 5098 0
5158 5216 5098 0
5217 5158 5062 0
5100 5184 5099 0
5101 5218 5100 0
5159 5219 5101 0
5220 5128 5013 0
5161 5220 5013 0
5129 5163 5064 0
5221 5164 5104 0
5222 5105 5017 0
5223 5222 5017 0
5106 5223 5017 0
5185 5107 5108 0
5166 5185 5065 0
5224 5067 5109 0
5188 5069 5110 0
5225 5111 5169 0
5226 5225 5169 0
5226 5169 5170 0
5227 5073 5134 0
5228 5134 5075 0
5135 5228 5075 0
5229 5193 4994 0
5229 4994 5078 0
5230 5078 4995 0
5231 5194 5138 0
5231 5138 5113 0
5195 5113 5045 0
5139 5114 5115 0
5232 5081 5116 0
5232 5233 5081 0
5232 5116 5141 0
5234 5047 5173 0
5234 5196 5047 0
5235 5173 5197 0
5236 4900 5198 0
5236 5197 4900 0
5237 5201 5174 0
5237 5174 5175 0
5202 5145 5176 0
5202 5175 5145 0
5238 5203 5120 0
5238 5120 5204 0
5239 5147 5148 0
5239 5148 5149 0
5239 5149 5150 0
5206 5240 5150 0
5209 5207 5123 0
5241 5211 5125 0
5241 5125 5212 0
5180 5212 5153 0
5214 5213 5154 0
5242 5155 5126 0
5215 5242 5126 0
5243 5183 5127 0
5244 5127 5096 0
5244 5096 5097 0
5245 5216 5158 0
5184 5217 5062 0
5218 5184 5100 0
5219 5218 5101 0
5128 5159 5160 0
5246 5163 5129 0
5247 5131 5103 0
5248 5104 5132 0
5248 5132 5165 0
5249 5248 5165 0
5249 5165 5105 0
5223 5106 5107 0
5250 5166 5066 0
5186 5250 5066 0
5224 5186 5067 0
5187 5224 5109 0
5251 5187 5188 0
5252 5188 5110 0
5252 5110 5167 0
5253 5252 5167 0
5253 5167 5133 0
5254 5133 5189 0
5254 5189 5168 0
5255 5168 5190 0
5225 5190 5111 0
5227 5170 5073 0
5256 5193 5229 0
5257 5078 5230 0
5230 4995 5171 0
5258 5171 5194 0
5259 5113 5195 0
5259 5231 5113 0
5259 5195 5080 0
5260 5080 5172 0
5260 5172 5114 0
5261 5114 5139 0
5262 5081 5233 0
5262 5140 5081 0
5232 5262 5233 0
5142 5198 5082 0
5199 5118 5083 0
5199 5084 5200 0
5263 5199 5200 0
5264 5263 5200 0
5264 5200 5201 0
5265 5201 5237 0
5266 5175 5202 0
5267 5238 5204 0
5267 5204 5121 0
5267 5121 5205 0
5268 5146 5177 0
5268 5205 5146 0
5268 5177 5147 0
5268 5147 5239 0
5269 5239 5150 0
5269 5150 5240 0
5270 5206 5152 0
5270 5152 5208 0
5271 5208 5207 0
5209 5271 5207 0
5272 5210 5178 0
5273 5178 5179 0
5274 5273 5179 0
5274 5179 5211 0
5275 5212 5180 0
5242 5214 5155 0
5276 5182 5157 0
5277 5157 5183 0
5277 5276 5157 0
5244 5243 5127 0
5278 5244 5097 0
5279 5097 5216 0
5279 5278 5097 0
5245 5279 5216 0
5280 5158 5217 0
5280 5245 5158 0
5281 5217 5184 0
5246 5129 5130 0
5248 5221 5104 0
5282 5249 5105 0
5282 5105 5222 0
5166 5283 5185 0
5255 5254 5168 0
5225 5255 5190 0
5191 5228 5135 0
5284 5191 5192 0
5285 5192 5136 0
5193 5285 5136 0
5257 5229 5078 0
5258 5230 5171 0
5260 5259 5080 0
5261 5260 5114 0
5286 5139 5140 0
5235 5234 5173 0
5287 5235 5197 0
5236 5287 5197 0
5288 5142 5118 0
5265 5264 5201 0
5266 5265 5237 0
5266 5237 5175 0
5289 5266 5202 0
5290 5267 5205 0
5290 5205 5268 0
5291 5269 5240 0
5206 5291 5240 0
5270 5292 5206 0
5293 5271 5209 0
5294 5293 5209 0
5210 5294 5209 0
5273 5272 5178 0
5241 5274 5211 0
5295 5241 5212 0
5275 5295 5212 0
5213 5275 5180 0
5214 5275 5213 0
5296 5215 5181 0
5276 5181 5182 0
5244 5183 5243 0
5297 5278 5279 0
5281 5280 5217 0
5298 5184 5218 0
5298 5281 5184 0
5219 5298 5218 0
5299 5159 5128 0
5300 5163 5246 0
5300 5162 5163 0
5301 5130 5131 0
5301 5246 5130 0
5283 5107 5185 0
5283 5223 5107 0
5302 5283 5166 0
5303 5186 5224 0
5251 5224 5187 0
5304 5251 5188 0
5305 5253 5133 0
5306 5133 5254 0
5306 5254 5255 0
5307 5225 5226 0
5227 5226 5170 0
5308 5228 5191 0
5285 5284 5192 0
5256 5285 5193 0
5256 5229 5257 0
5309 5194 5231 0
5310 5259 5260 0
5286 5261 5139 0
5262 5286 5140 0
5311 5262 5232 0
5312 5311 5232 0
5313 5232 5141 0
5313 5312 5232 0
5314 5196 5234 0
5314 5141 5196 0
5315 5236 5198 0
5315 5287 5236 0
5316 5198 5142 0
5317 5199 5263 0
5317 5263 5264 0
5318 5289 5202 0
5318 5202 5203 0
5319 5203 5238 0
5319 5238 5267 0
5320 5319 5267 0
5321 5320 5267 0
5322 5290 5268 0
5323 5268 5239 0
5323 5239 5269 0
5291 5323 5269 0
5324 5291 5206 0
5325 5292 5270 0
5326 5325 5270 0
5326 5270 5208 0
5327 5208 5271 0
5328 5327 5271 0
5293 5328 5271 0
5329 5210 5272 0
5273 5329 5272 0
5296 5242 5215 0
5330 5296 5181 0
5330 5181 5276 0
5331 5276 5277 0
5332 5183 5244 0
5297 5244 5278 0
5333 5279 5245 0
5333 5297 5279 0
5280 5334 5245 0
5159 5335 5219 0
5336 5299 5128 0
5337 5128 5220 0
5337 5336 5128 0
5338 5337 5220 0
5338 5220 5161 0
5301 5131 5247 0
5339 5103 5164 0
5340 5282 5222 0
5306 5305 5133 0
5341 5255 5225 0
5307 5341 5225 0
5342 5261 5286 0
5314 5313 5141 0
5288 5316 5142 0
5343 5288 5118 0
5343 5118 5199 0
5344 5264 5265 0
5344 5265 5266 0
5345 5344 5266 0
5345 5266 5289 0
5319 5318 5203 0
5346 5267 5290 0
5346 5321 5267 0
5346 5290 5322 0
5323 5322 5268 0
5347 5323 5291 0
5347 5291 5324 0
5348 5347 5324 0
5348 5324 5206 0
5348 5206 5292 0
5325 5348 5292 0
5327 5325 5326 0
5327 5326 5208 0
5329 5294 5210 0
5349 5275 5214 0
5349 5214 5242 0
5350 5330 5276 0
5332 5277 5183 0
5297 5332 5244 0
5334 5333 5245 0
5351 5280 5281 0
5352 5298 5219 0
5335 5352 5219 0
5299 5335 5159 0
5353 5338 5161 0
5354 5161 5162 0
5300 5354 5162 0
5355 5300 5246 0
5355 5246 5301 0
5339 5247 5103 0
5356 5164 5221 0
5356 5339 5164 0
5357 5221 5248 0
5249 5357 5248 0
5358 5249 5282 0
5223 5340 5222 0
5359 5223 5283 0
5302 5359 5283 0
5302 5166 5250 0
5303 5250 5186 0
5360 5304 5188 0
5360 5188 5252 0
5361 5253 5305 0
5361 5305 5306 0
5362 5134 5228 0
5308 5362 5228 0
5363 5308 5191 0
5284 5363 5191 0
5364 5284 5285 0
5365 5230 5258 0
5366 5231 5259 0
5310 5366 5259 0
5342 5260 5261 0
5342 5310 5260 0
5367 5286 5262 0
5368 5235 5287 0
5368 5234 5235 0
5316 5315 5198 0
5369 5288 5343 0
5370 5343 5199 0
5317 5370 5199 0
5371 5317 5264 0
5371 5264 5344 0
5372 5345 5289 0
5373 5289 5318 0
5374 5318 5319 0
5374 5373 5318 0
5375 5322 5323 0
5375 5323 5347 0
5376 5348 5325 0
5376 5325 5327 0
5377 5328 5293 0
5378 5293 5294 0
5378 5377 5293 0
5329 5378 5294 0
5379 5273 5274 0
5379 5274 5241 0
5380 5379 5241 0
5380 5241 5295 0
5381 5380 5295 0
5381 5295 5275 0
5382 5349 5242 0
5383 5382 5242 0
5383 5242 5296 0
5384 5296 5330 0
5350 5384 5330 0
5385 5276 5331 0
5385 5350 5276 0
5386 5332 5297 0
5387 5297 5333 0
5387 5333 5334 0
5388 5280 5351 0
5388 5334 5280 0
5389 5352 5335 0
5390 5336 5337 0
5338 5390 5337 0
5353 5161 5354 0
5391 5355 5301 0
5392 5301 5247 0
5393 5247 5339 0
5356 5393 5339 0
5357 5356 5221 0
5394 5357 5249 0
5340 5358 5282 0
5395 5340 5223 0
5396 5302 5250 0
5397 5303 5224 0
5397 5224 5251 0
5398 5252 5253 0
5399 5361 5306 0
5362 5227 5134 0
5256 5364 5285 0
5400 5257 5230 0
5365 5400 5230 0
5401 5258 5194 0
5309 5401 5194 0
5402 5231 5366 0
5402 5309 5231 0
5403 5342 5286 0
5404 5313 5314 0
5405 5316 5288 0
5370 5369 5343 0
5370 5317 5371 0
5406 5371 5344 0
5407 5344 5345 0
5407 5406 5344 0
5372 5407 5345 0
5373 5372 5289 0
5408 5374 5319 0
5408 5319 5320 0
5409 5408 5320 0
5321 5409 5320 0
5375 5346 5322 0
5410 5375 5347 0
5410 5347 5348 0
5411 5376 5327 0
5412 5329 5273 0
5412 5413 5329 0
5414 5379 5380 0
5349 5381 5275 0
5415 5383 5296 0
5385 5416 5350 0
5417 5386 5297 0
5387 5417 5297 0
5388 5351 5281 0
5298 5388 5281 0
5389 5298 5352 0
5336 5335 5299 0
5336 5418 5335 0
5419 5300 5355 0
5392 5391 5301 0
5394 5249 5358 0
5395 5223 5359 0
5396 5395 5359 0
5396 5359 5302 0
5420 5250 5303 0
5420 5396 5250 0
5361 5398 5253 0
5421 5306 5255 0
5421 5399 5306 0
5421 5255 5341 0
5422 5307 5226 0
5422 5226 5227 0
5362 5422 5227 0
5362 5308 5363 0
5364 5363 5284 0
5423 5256 5257 0
5423 5364 5256 0
5424 5310 5342 0
5367 5403 5286 0
5425 5262 5311 0
5425 5367 5262 0
5404 5312 5313 0
5426 5314 5234 0
5368 5426 5234 0
5427 5368 5287 0
5428 5287 5315 0
5428 5427 5287 0
5429 5315 5316 0
5405 5429 5316 0
5369 5405 5288 0
5430 5372 5373 0
5430 5373 5374 0
5408 5430 5374 0
5431 5409 5321 0
5432 5321 5346 0
5433 5375 5410 0
5434 5410 5348 0
5434 5433 5410 0
5434 5348 5376 0
5435 5434 5376 0
5411 5435 5376 0
5436 5327 5328 0
5436 5328 5377 0
5437 5436 5377 0
5378 5437 5377 0
5413 5378 5329 0
5438 5273 5379 0
5414 5438 5379 0
5380 5381 5349 0
5382 5380 5349 0
5415 5382 5383 0
5439 5415 5296 0
5439 5296 5384 0
5416 5384 5350 0
5331 5277 5332 0
5440 5331 5332 0
5417 5332 5386 0
5417 5440 5332 0
5388 5387 5334 0
5441 5388 5298 0
5389 5441 5298 0
5442 5389 5335 0
5418 5442 5335 0
5393 5443 5247 0
5444 5356 5357 0
5444 5393 5356 0
5445 5394 5358 0
5446 5251 5304 0
5446 5304 5360 0
5447 5360 5252 0
5447 5252 5398 0
5448 5361 5399 0
5448 5399 5421 0
5421 5341 5307 0
5449 5422 5362 0
5450 5362 5363 0
5451 5423 5257 0
5400 5451 5257 0
5452 5424 5342 0
5452 5342 5403 0
5453 5403 5367 0
5454 5311 5312 0
5454 5425 5311 0
5429 5428 5315 0
5455 5405 5369 0
5456 5369 5370 0
5456 5370 5371 0
5457 5456 5371 0
5458 5406 5407 0
5458 5407 5372 0
5459 5458 5372 0
5459 5372 5430 0
5460 5430 5408 0
5461 5460 5408 0
5461 5408 5409 0
5432 5431 5321 0
5433 5432 5346 0
5433 5346 5375 0
5462 5411 5327 0
5436 5462 5327 0
5463 5378 5413 0
5464 5413 5412 0
5464 5412 5273 0
5438 5464 5273 0
5465 5439 5384 0
5416 5465 5384 0
5466 5418 5336 0
5466 5442 5418 0
5390 5466 5336 0
5419 5354 5300 0
5467 5355 5391 0
5467 5419 5355 0
5468 5391 5392 0
5468 5467 5391 0
5443 5392 5247 0
5395 5358 5340 0
5469 5420 5303 0
5469 5303 5397 0
5446 5397 5251 0
5446 5470 5397 0
5471 5446 5360 0
5472 5398 5361 0
5473 5363 5364 0
5473 5450 5363 0
5474 5309 5402 0
5474 5402 5366 0
5475 5366 5310 0
5424 5475 5310 0
5452 5403 5453 0
5425 5453 5367 0
5476 5314 5426 0
5476 5404 5314 0
5476 5426 5368 0
5477 5476 5368 0
5427 5477 5368 0
5478 5429 5405 0
5455 5478 5405 0
5479 5369 5456 0
5480 5457 5371 0
5480 5371 5406 0
5458 5480 5406 0
5481 5461 5409 0
5431 5481 5409 0
5482 5431 5432 0
5482 5432 5433 0
5411 5483 5435 0
5463 5437 5378 0
5464 5463 5413 0
5484 5440 5417 0
5442 5485 5389 0
5486 5466 5390 0
5487 5390 5338 0
5487 5486 5390 0
5353 5487 5338 0
5468 5392 5443 0
5444 5488 5393 0
5489 5357 5394 0
5489 5444 5357 0
5490 5358 5395 0
5491 5490 5395 0
5491 5395 5396 0
5491 5396 5420 0
5469 5491 5420 0
5492 5469 5397 0
5447 5471 5360 0
5493 5447 5398 0
5493 5398 5472 0
5472 5361 5448 0
5494 5448 5421 0
5495 5421 5307 0
5495 5307 5422 0
5496 5422 5449 0
5497 5362 5450 0
5423 5473 5364 0
5498 5365 5258 0
5498 5400 5365 0
5499 5258 5401 0
5499 5401 5309 0
5474 5499 5309 0
5475 5474 5366 0
5500 5424 5452 0
5500 5475 5424 0
5501 5312 5404 0
5455 5369 5479 0
5502 5456 5457 0
5502 5457 5480 0
5503 5480 5458 0
5503 5458 5459 0
5504 5503 5459 0
5505 5504 5459 0
5505 5459 5430 0
5505 5430 5460 0
5506 5460 5461 0
5481 5506 5461 0
5507 5481 5431 0
5508 5433 5434 0
5509 5508 5434 0
5509 5434 5435 0
5483 5411 5462 0
5510 5462 5436 0
5437 5510 5436 0
5511 5380 5382 0
5512 5511 5382 0
5512 5382 5415 0
5512 5415 5439 0
5513 5439 5465 0
5514 5416 5385 0
5515 5385 5331 0
5516 5417 5387 0
5516 5484 5417 0
5517 5387 5388 0
5517 5388 5441 0
5485 5441 5389 0
5485 5518 5441 0
5519 5487 5353 0
5354 5519 5353 0
5520 5443 5393 0
5521 5488 5444 0
5445 5489 5394 0
5494 5421 5495 0
5522 5495 5422 0
5523 5449 5362 0
5497 5523 5362 0
5524 5497 5450 0
5473 5524 5450 0
5473 5423 5451 0
5525 5451 5400 0
5498 5525 5400 0
5499 5498 5258 0
5526 5452 5453 0
5527 5526 5453 0
5528 5453 5425 0
5528 5527 5453 0
5528 5425 5454 0
5501 5454 5312 0
5529 5427 5428 0
5529 5428 5429 0
5530 5455 5479 0
5530 5479 5456 0
5531 5502 5480 0
5532 5505 5460 0
5506 5532 5460 0
5507 5431 5482 0
5507 5482 5433 0
5508 5507 5433 0
5533 5508 5509 0
5534 5533 5509 0
5534 5509 5435 0
5483 5534 5435 0
5535 5437 5463 0
5536 5438 5414 0
5511 5414 5380 0
5513 5512 5439 0
5537 5465 5416 0
5537 5513 5465 0
5514 5537 5416 0
5515 5514 5385 0
5538 5331 5440 0
5517 5516 5387 0
5518 5517 5441 0
5486 5442 5466 0
5539 5419 5467 0
5520 5468 5443 0
5488 5520 5393 0
5521 5444 5489 0
5540 5358 5490 0
5541 5490 5491 0
5492 5397 5470 0
5542 5492 5470 0
5542 5470 5446 0
5543 5446 5471 0
5544 5447 5493 0
5494 5472 5448 0
5496 5522 5422 0
5545 5496 5449 0
5545 5449 5523 0
5497 5545 5523 0
5525 5473 5451 0
5546 5498 5499 0
5547 5499 5474 0
5548 5474 5475 0
5548 5475 5500 0
5526 5500 5452 0
5478 5455 5530 0
5549 5530 5456 0
5549 5456 5502 0
5531 5549 5502 0
5550 5531 5480 0
5550 5480 5503 0
5504 5550 5503 0
5551 5532 5506 0
5551 5506 5481 0
5533 5507 5508 0
5552 5483 5462 0
5553 5552 5462 0
5553 5462 5510 0
5554 5510 5437 0
5554 5553 5510 0
5535 5554 5437 0
5511 5555 5414 0
5538 5515 5331 0
5556 5440 5484 0
5557 5484 5516 0
5558 5486 5487 0
5519 5558 5487 0
5559 5354 5419 0
5539 5559 5419 0
5520 5560 5468 0
5561 5488 5521 0
5562 5445 5358 0
5540 5562 5358 0
5541 5491 5469 0
5563 5469 5492 0
5543 5542 5446 0
5564 5544 5493 0
5565 5494 5495 0
5565 5495 5522 0
5545 5522 5496 0
5566 5524 5473 0
5566 5473 5525 0
5567 5525 5498 0
5546 5567 5498 0
5547 5546 5499 0
5568 5500 5526 0
5569 5526 5527 0
5569 5568 5526 0
5570 5454 5501 0
5571 5570 5501 0
5571 5501 5404 0
5571 5404 5476 0
5572 5476 5477 0
5572 5477 5427 0
5573 5427 5529 0
5574 5429 5478 0
5574 5529 5429 0
5575 5504 5505 0
5532 5575 5505 0
5576 5551 5481 0
5576 5481 5507 0
5577 5533 5534 0
5578 5577 5534 0
5578 5534 5483 0
5552 5578 5483 0
5579 5535 5463 0
5580 5463 5464 0
5555 5536 5414 0
5581 5555 5511 0
5512 5581 5511 0
5582 5512 5513 0
5556 5538 5440 0
5557 5556 5484 0
5583 5557 5516 0
5517 5583 5516 0
5584 5518 5485 0
5442 5584 5485 0
5585 5442 5486 0
5586 5585 5486 0
5558 5586 5486 0
5587 5539 5467 0
5588 5467 5468 0
5588 5587 5467 0
5560 5588 5468 0
5589 5489 5445 0
5541 5540 5490 0
5541 5469 5563 0
5542 5563 5492 0
5590 5543 5471 0
5590 5471 5447 0
5591 5447 5592 0
5591 5590 5447 0
5544 5592 5447 0
5593 5545 5497 0
5566 5497 5524 0
5567 5566 5525 0
5548 5594 5474 0
5568 5548 5500 0
5528 5569 5527 0
5595 5528 5454 0
5570 5595 5454 0
5596 5571 5476 0
5596 5476 5572 0
5597 5427 5573 0
5597 5572 5427 0
5574 5478 5530 0
5598 5574 5530 0
5599 5530 5549 0
5599 5549 5531 0
5600 5531 5550 0
5601 5600 5550 0
5601 5550 5504 0
5602 5504 5575 0
5603 5575 5532 0
5603 5532 5551 0
5604 5603 5551 0
5604 5551 5576 0
5605 5578 5552 0
5606 5554 5535 0
5579 5606 5535 0
5580 5579 5463 0
5607 5464 5438 0
5607 5608 5464 0
5536 5607 5438 0
5609 5556 5557 0
5610 5517 5518 0
5584 5610 5518 0
5559 5519 5354 0
5611 5520 5488 0
5611 5560 5520 0
5612 5488 5561 0
5613 5521 5489 0
5613 5561 5521 0
5589 5613 5489 0
5614 5543 5590 0
5614 5542 5543 0
5615 5592 5544 0
5615 5591 5592 0
5616 5494 5565 0
5617 5565 5522 0
5617 5522 5545 0
5593 5617 5545 0
5566 5593 5497 0
5618 5567 5546 0
5618 5546 5547 0
5594 5547 5474 0
5619 5548 5568 0
5619 5620 5548 0
5621 5569 5528 0
5595 5621 5528 0
5574 5573 5529 0
5598 5530 5599 0
5622 5599 5531 0
5622 5531 5600 0
5623 5600 5601 0
5602 5601 5504 0
5603 5602 5575 0
5624 5604 5576 0
5625 5576 5507 0
5625 5624 5576 0
5625 5507 5533 0
5577 5625 5533 0
5608 5580 5464 0
5626 5608 5607 0
5626 5607 5536 0
5627 5536 5555 0
5627 5626 5536 0
5581 5627 5555 0
5512 5628 5581 0
5628 5512 5582 0
5629 5582 5513 0
5629 5628 5582 0
5629 5513 5537 0
5583 5609 5557 0
5630 5583 5517 0
5631 5584 5442 0
5632 5442 5585 0
5632 5631 5442 0
5586 5632 5585 0
5633 5539 5587 0
5634 5587 5588 0
5560 5634 5588 0
5612 5611 5488 0
5635 5589 5445 0
5636 5445 5562 0
5636 5635 5445 0
5637 5562 5540 0
5638 5563 5542 0
5639 5638 5542 0
5639 5542 5614 0
5591 5614 5590 0
5564 5615 5544 0
5640 5472 5494 0
5640 5493 5472 0
5641 5593 5566 0
5642 5567 5618 0
5643 5618 5547 0
5594 5643 5547 0
5644 5594 5548 0
5620 5644 5548 0
5645 5568 5569 0
5646 5571 5596 0
5646 5570 5571 0
5647 5572 5597 0
5648 5574 5598 0
5623 5622 5600 0
5649 5623 5601 0
5649 5601 5602 0
5650 5625 5577 0
5650 5577 5578 0
5651 5605 5552 0
5652 5552 5553 0
5652 5651 5552 0
5653 5652 5553 0
5653 5553 5554 0
5654 5653 5554 0
5654 5554 5606 0
5655 5626 5627 0
5656 5627 5581 0
5657 5537 5514 0
5658 5514 5515 0
5658 5515 5538 0
5659 5538 5556 0
5609 5659 5556 0
5630 5609 5583 0
5630 5517 5610 0
5660 5586 5558 0
5661 5558 5519 0
5661 5660 5558 0
5661 5519 5559 0
5662 5661 5559 0
5662 5559 5539 0
5633 5662 5539 0
5634 5633 5587 0
5611 5663 5560 0
5664 5561 5613 0
5665 5664 5613 0
5589 5665 5613 0
5637 5636 5562 0
5666 5637 5540 0
5666 5540 5541 0
5666 5541 5563 0
5667 5564 5493 0
5667 5493 5640 0
5668 5494 5616 0
5668 5640 5494 0
5669 5616 5565 0
5670 5565 5617 0
5670 5669 5565 0
5671 5617 5593 0
5641 5671 5593 0
5672 5566 5567 0
5672 5567 5642 0
5643 5673 5618 0
5674 5643 5594 0
5644 5674 5594 0
5675 5644 5620 0
5676 5620 5619 0
5676 5675 5620 0
5677 5619 5568 0
5677 5676 5619 0
5645 5677 5568 0
5678 5569 5621 0
5595 5679 5621 0
5646 5680 5570 0
5647 5596 5572 0
5647 5681 5596 0
5648 5573 5574 0
5682 5598 5599 0
5682 5599 5622 0
5683 5622 5623 0
5649 5683 5623 0
5649 5602 5603 0
5684 5649 5603 0
5685 5604 5624 0
5685 5603 5604 0
5650 5624 5625 0
5686 5578 5605 0
5686 5650 5578 0
5580 5687 5579 0
5688 5608 5626 0
5689 5688 5626 0
5655 5689 5626 0
5690 5655 5627 0
5690 5627 5656 0
5628 5656 5581 0
5691 5629 5537 0
5657 5691 5537 0
5658 5657 5514 0
5659 5692 5538 0
5693 5630 5610 0
5694 5610 5584 0
5694 5693 5610 0
5695 5584 5631 0
5695 5694 5584 0
5632 5695 5631 0
5660 5696 5586 0
5663 5634 5560 0
5664 5612 5561 0
5697 5589 5635 0
5698 5697 5635 0
5698 5635 5636 0
5699 5636 5637 0
5700 5666 5563 0
5700 5563 5638 0
5639 5700 5638 0
5701 5614 5591 0
5702 5615 5564 0
5703 5564 5667 0
5669 5668 5616 0
5671 5670 5617 0
5672 5641 5566 0
5673 5642 5618 0
5704 5676 5677 0
5678 5645 5569 0
5705 5595 5570 0
5705 5679 5595 0
5680 5705 5570 0
5706 5647 5597 0
5706 5597 5573 0
5707 5648 5598 0
5707 5598 5682 0
5708 5682 5622 0
5708 5622 5683 0
5685 5684 5603 0
5650 5685 5624 0
5709 5605 5651 0
5709 5686 5605 0
5652 5709 5651 0
5710 5652 5653 0
5654 5710 5653 0
5687 5606 5579 0
5711 5687 5580 0
5712 5580 5608 0
5712 5711 5580 0
5713 5608 5688 0
5714 5689 5655 0
5690 5714 5655 0
5715 5656 5628 0
5715 5628 5629 0
5716 5658 5538 0
5716 5538 5692 0
5717 5609 5630 0
5718 5695 5632 0
5719 5632 5586 0
5696 5719 5586 0
5720 5661 5662 0
5720 5662 5633 0
5663 5633 5634 0
5721 5663 5611 0
5722 5721 5611 0
5722 5611 5612 0
5664 5722 5612 0
5723 5698 5636 0
5699 5723 5636 0
5615 5701 5591 0
5703 5702 5564 0
5724 5667 5640 0
5724 5640 5668 0
5725 5668 5669 0
5726 5725 5669 0
5726 5669 5670 0
5726 5670 5671 0
5727 5673 5643 0
5728 5643 5674 0
5728 5727 5643 0
5644 5728 5674 0
5704 5675 5676 0
5678 5677 5645 0
5681 5646 5596 0
5706 5573 5648 0
5729 5707 5682 0
5729 5682 5708 0
5730 5683 5649 0
5730 5708 5683 0
5731 5649 5684 0
5732 5650 5686 0
5710 5709 5652 0
5733 5654 5606 0
5687 5733 5606 0
5711 5734 5687 0
5713 5712 5608 0
5689 5713 5688 0
5715 5690 5656 0
5735 5657 5658 0
5736 5693 5694 0
5695 5736 5694 0
5719 5718 5632 0
5737 5696 5660 0
5737 5660 5661 0
5738 5633 5663 0
5739 5665 5589 0
5739 5589 5697 0
5698 5739 5697 0
5740 5699 5637 0
5666 5740 5637 0
5741 5639 5614 0
5742 5614 5701 0
5742 5741 5614 0
5743 5701 5615 0
5702 5743 5615 0
5744 5724 5668 0
5725 5744 5668 0
5745 5726 5671 0
5746 5745 5671 0
5746 5671 5641 0
5747 5672 5642 0
5747 5642 5673 0
5727 5747 5673 0
5748 5644 5675 0
5748 5728 5644 0
5749 5677 5678 0
5750 5678 5621 0
5750 5621 5679 0
5751 5679 5705 0
5752 5680 5646 0
5752 5646 5681 0
5753 5681 5647 0
5706 5753 5647 0
5706 5648 5707 0
5730 5729 5708 0
5754 5731 5684 0
5754 5684 5685 0
5754 5685 5650 0
5732 5754 5650 0
5709 5732 5686 0
5733 5755 5654 0
5734 5733 5687 0
5713 5711 5712 0
5756 5689 5714 0
5757 5714 5690 0
5715 5757 5690 0
5735 5691 5657 0
5659 5716 5692 0
5758 5630 5693 0
5736 5758 5693 0
5718 5736 5695 0
5759 5718 5719 0
5760 5719 5696 0
5737 5760 5696 0
5720 5737 5661 0
5761 5720 5633 0
5738 5761 5633 0
5721 5738 5663 0
5762 5698 5723 0
5723 5699 5740 0
5763 5700 5639 0
5741 5763 5639 0
5743 5742 5701 0
5764 5743 5702 0
5764 5702 5703 0
5765 5764 5703 0
5765 5703 5667 0
5765 5667 5724 0
5766 5744 5725 0
5766 5725 5726 0
5745 5766 5726 0
5747 5746 5641 0
5672 5747 5641 0
5767 5747 5727 0
5767 5727 5728 0
5768 5748 5675 0
5768 5675 5704 0
5749 5704 5677 0
5750 5749 5678 0
5769 5750 5679 0
5751 5769 5679 0
5770 5680 5752 0
5770 5705 5680 0
5771 5706 5707 0
5771 5707 5729 0
5772 5729 5730 0
5773 5730 5649 0
5774 5649 5731 0
5774 5773 5649 0
5775 5731 5754 0
5776 5732 5709 0
5777 5776 5709 0
5777 5709 5710 0
5755 5710 5654 0
5778 5713 5689 0
5757 5756 5714 0
5758 5717 5630 0
5779 5758 5736 0
5780 5736 5718 0
5781 5722 5664 0
5781 5664 5665 0
5739 5781 5665 0
5782 5740 5666 0
5700 5782 5666 0
5783 5741 5742 0
5783 5742 5743 0
5784 5765 5724 0
5785 5724 5744 0
5785 5784 5724 0
5786 5745 5746 0
5747 5786 5746 0
5787 5728 5748 0
5768 5787 5748 0
5788 5749 5750 0
5769 5788 5750 0
5705 5789 5751 0
5790 5706 5771 0
5772 5791 5729 0
5792 5730 5773 0
5792 5772 5730 0
5775 5774 5731 0
5793 5775 5754 0
5776 5754 5732 0
5776 5793 5754 0
5794 5795 5711 0
5713 5794 5711 0
5756 5778 5689 0
5796 5629 5691 0
5796 5715 5629 0
5797 5658 5716 0
5779 5717 5758 0
5780 5798 5736 0
5799 5759 5719 0
5799 5719 5760 0
5800 5760 5737 0
5800 5737 5720 0
5761 5800 5720 0
5801 5738 5721 0
5802 5801 5721 0
5802 5721 5722 0
5803 5802 5722 0
5781 5803 5722 0
5804 5739 5698 0
5762 5804 5698 0
5805 5762 5723 0
5805 5723 5740 0
5806 5805 5740 0
5784 5764 5765 0
5807 5784 5785 0
5807 5785 5744 0
5808 5766 5745 0
5786 5808 5745 0
5809 5786 5747 0
5810 5747 5767 0
5810 5809 5747 0
5811 5767 5728 0
5812 5768 5704 0
5812 5704 5749 0
5789 5769 5751 0
5813 5789 5705 0
5813 5705 5770 0
5814 5752 5681 0
5815 5681 5753 0
5790 5753 5706 0
5816 5790 5771 0
5816 5771 5729 0
5791 5816 5729 0
5791 5772 5792 0
5817 5792 5773 0
5817 5773 5774 0
5818 5776 5777 0
5755 5777 5710 0
5734 5819 5733 0
5795 5734 5711 0
5795 5820 5734 0
5821 5713 5778 0
5822 5778 5756 0
5796 5756 5757 0
5796 5822 5756 0
5823 5716 5659 0
5823 5659 5609 0
5798 5779 5736 0
5824 5798 5780 0
5824 5780 5718 0
5825 5718 5759 0
5825 5824 5718 0
5799 5825 5759 0
5826 5799 5760 0
5800 5826 5760 0
5801 5761 5738 0
5804 5781 5739 0
5827 5762 5805 0
5782 5806 5740 0
5763 5782 5700 0
5828 5763 5741 0
5828 5741 5783 0
5829 5783 5743 0
5764 5829 5743 0
5830 5744 5766 0
5830 5807 5744 0
5831 5809 5810 0
5811 5810 5767 0
5832 5787 5768 0
5833 5812 5749 0
5788 5833 5749 0
5834 5813 5770 0
5834 5770 5752 0
5814 5834 5752 0
5815 5814 5681 0
5835 5816 5791 0
5836 5792 5817 0
5837 5817 5774 0
5837 5774 5775 0
5818 5793 5776 0
5838 5818 5777 0
5755 5838 5777 0
5733 5839 5755 0
5820 5819 5734 0
5840 5795 5794 0
5841 5794 5713 0
5821 5841 5713 0
5822 5821 5778 0
5796 5757 5715 0
5842 5691 5735 0
5843 5735 5658 0
5797 5843 5658 0
5823 5797 5716 0
5844 5609 5717 0
5844 5823 5609 0
5845 5803 5781 0
5846 5805 5806 0
5846 5806 5782 0
5847 5764 5784 0
5830 5766 5808 0
5848 5728 5787 0
5848 5811 5728 0
5832 5848 5787 0
5849 5768 5812 0
5849 5832 5768 0
5850 5788 5769 0
5850 5851 5788 0
5852 5753 5790 0
5835 5790 5816 0
5853 5835 5791 0
5853 5791 5792 0
5853 5792 5836 0
5854 5836 5817 0
5854 5817 5837 0
5855 5837 5775 0
5855 5775 5793 0
5818 5855 5793 0
5838 5855 5818 0
5839 5838 5755 0
5856 5839 5733 0
5841 5840 5794 0
5842 5796 5691 0
5857 5844 5717 0
5857 5717 5779 0
5858 5779 5798 0
5858 5857 5779 0
5859 5824 5825 0
5860 5825 5799 0
5826 5860 5799 0
5861 5826 5800 0
5861 5800 5761 0
5861 5761 5801 0
5862 5861 5801 0
5863 5801 5802 0
5864 5845 5781 0
5864 5781 5804 0
5827 5804 5762 0
5865 5805 5846 0
5865 5827 5805 0
5866 5846 5782 0
5866 5763 5828 0
5866 5782 5763 0
5867 5828 5783 0
5867 5783 5829 0
5868 5829 5764 0
5847 5868 5764 0
5869 5847 5784 0
5869 5784 5807 0
5870 5830 5808 0
5871 5870 5808 0
5871 5808 5786 0
5831 5871 5786 0
5831 5786 5809 0
5872 5810 5811 0
5848 5872 5811 0
5873 5849 5812 0
5833 5788 5851 0
5874 5769 5789 0
5874 5850 5769 0
5875 5814 5815 0
5852 5790 5835 0
5876 5837 5855 0
5876 5854 5837 0
5876 5855 5838 0
5839 5876 5838 0
5877 5856 5733 0
5819 5877 5733 0
5840 5878 5795 0
5843 5842 5735 0
5879 5797 5823 0
5880 5798 5824 0
5880 5858 5798 0
5859 5880 5824 0
5860 5859 5825 0
5862 5801 5863 0
5845 5802 5803 0
5845 5863 5802 0
5881 5804 5827 0
5882 5846 5866 0
5867 5866 5828 0
5883 5867 5829 0
5868 5883 5829 0
5884 5868 5847 0
5869 5884 5847 0
5885 5869 5807 0
5886 5807 5830 0
5886 5885 5807 0
5870 5886 5830 0
5887 5871 5831 0
5873 5832 5849 0
5833 5873 5812 0
5874 5789 5813 0
5834 5888 5813 0
5889 5815 5753 0
5889 5753 5852 0
5890 5852 5835 0
5891 5835 5853 0
5892 5891 5853 0
5892 5853 5836 0
5892 5836 5854 0
5893 5892 5854 0
5878 5820 5795 0
5894 5857 5858 0
5895 5859 5860 0
5896 5861 5862 0
5897 5862 5863 0
5897 5863 5845 0
5887 5870 5871 0
5898 5831 5810 0
5898 5887 5831 0
5872 5898 5810 0
5899 5848 5832 0
5851 5900 5833 0
5888 5874 5813 0
5834 5814 5875 0
5875 5815 5889 0
5901 5852 5890 0
5890 5835 5891 0
5902 5893 5854 0
5902 5854 5876 0
5902 5876 5839 0
5856 5902 5839 0
5903 5840 5841 0
5904 5822 5796 0
5905 5879 5823 0
5906 5823 5844 0
5906 5905 5823 0
5894 5844 5857 0
5895 5907 5859 0
5908 5860 5826 0
5908 5895 5860 0
5896 5826 5861 0
5896 5908 5826 0
5909 5896 5862 0
5804 5910 5864 0
5911 5804 5881 0
5912 5827 5865 0
5913 5865 5846 0
5882 5913 5846 0
5914 5883 5868 0
5915 5885 5886 0
5870 5915 5886 0
5848 5898 5872 0
5873 5899 5832 0
5900 5873 5833 0
5901 5889 5852 0
5916 5891 5892 0
5917 5892 5893 0
5917 5916 5892 0
5918 5917 5893 0
5918 5893 5902 0
5918 5902 5856 0
5919 5856 5877 0
5919 5918 5856 0
5919 5877 5819 0
5920 5841 5821 0
5920 5821 5822 0
5921 5796 5842 0
5905 5797 5879 0
5894 5906 5844 0
5922 5894 5858 0
5880 5922 5858 0
5923 5880 5859 0
5907 5923 5859 0
5924 5909 5862 0
5924 5862 5897 0
5925 5897 5845 0
5925 5845 5864 0
5910 5925 5864 0
5911 5910 5804 0
5912 5881 5827 0
5913 5912 5865 0
5882 5866 5867 0
5926 5882 5867 0
5883 5926 5867 0
5884 5914 5868 0
5927 5884 5869 0
5885 5927 5869 0
5928 5915 5870 0
5929 5928 5870 0
5929 5870 5887 0
5930 5929 5887 0
5930 5887 5898 0
5930 5898 5848 0
5931 5851 5850 0
5931 5850 5874 0
5932 5888 5834 0
5933 5834 5875 0
5933 5934 5834 0
5935 5901 5890 0
5936 5890 5891 0
5936 5935 5890 0
5937 5916 5917 0
5938 5919 5819 0
5939 5819 5820 0
5939 5938 5819 0
5878 5939 5820 0
5940 5903 5841 0
5920 5940 5841 0
5941 5842 5843 0
5905 5843 5797 0
5922 5942 5894 0
5923 5922 5880 0
5943 5908 5896 0
5943 5896 5909 0
5912 5911 5881 0
5944 5914 5884 0
5927 5944 5884 0
5945 5899 5873 0
5945 5873 5900 0
5931 5900 5851 0
5946 5931 5874 0
5947 5874 5888 0
5932 5947 5888 0
5934 5932 5834 0
5933 5875 5889 0
5933 5889 5901 0
5936 5891 5916 0
5937 5936 5916 0
5937 5917 5918 0
5904 5920 5822 0
5921 5904 5796 0
5941 5921 5842 0
5948 5843 5905 0
5942 5906 5894 0
5949 5923 5907 0
5950 5909 5924 0
5950 5897 5925 0
5950 5924 5897 0
5951 5925 5910 0
5951 5910 5911 0
5952 5951 5911 0
5912 5952 5911 0
5926 5913 5882 0
5915 5927 5885 0
5930 5953 5929 0
5954 5930 5848 0
5947 5946 5874 0
5955 5947 5932 0
5956 5933 5901 0
5935 5956 5901 0
5957 5935 5936 0
5958 5937 5918 0
5958 5918 5919 0
5959 5878 5840 0
5960 5920 5904 0
5961 5942 5922 0
5949 5922 5923 0
5962 5907 5895 0
5962 5949 5907 0
5962 5895 5908 0
5943 5962 5908 0
5963 5952 5912 0
5964 5912 5913 0
5965 5913 5926 0
5966 5927 5915 0
5928 5967 5915 0
5953 5928 5929 0
5954 5953 5930 0
5899 5954 5848 0
5968 5945 5900 0
5969 5933 5956 0
5957 5956 5935 0
5957 5936 5937 0
5970 5957 5937 0
5970 5937 5958 0
5938 5958 5919 0
5959 5939 5878 0
5940 5971 5903 0
5960 5940 5920 0
5960 5904 5921 0
5948 5941 5843 0
5972 5948 5905 0
5972 5905 5906 0
5961 5973 5942 0
5974 5922 5949 0
5974 5961 5922 0
5975 5909 5950 0
5976 5950 5925 0
5963 5951 5952 0
5977 5912 5964 0
5977 5963 5912 0
5978 5926 5883 0
5966 5944 5927 0
5967 5966 5915 0
5979 5899 5945 0
5968 5979 5945 0
5980 5968 5900 0
5980 5900 5931 0
5981 5958 5938 0
5939 5981 5938 0
5982 5939 5959 0
5971 5959 5840 0
5971 5840 5903 0
5983 5960 5921 0
5941 5983 5921 0
5984 5972 5906 0
5984 5906 5942 0
5962 5974 5949 0
5985 5962 5943 0
5985 5943 5909 0
5975 5985 5909 0
5976 5975 5950 0
5986 5977 5964 0
5965 5964 5913 0
5987 5978 5883 0
5914 5987 5883 0
5988 5947 5955 0
5989 5955 5932 0
5934 5989 5932 0
5990 5969 5956 0
5990 5956 5957 0
5981 5970 5958 0
5991 5982 5959 0
5971 5991 5959 0
5940 5992 5971 0
5993 5941 5948 0
5972 5993 5948 0
5973 5984 5942 0
5994 5961 5974 0
5994 5973 5961 0
5995 5975 5976 0
5996 5995 5976 0
5996 5925 5951 0
5996 5976 5925 0
5997 5996 5951 0
5997 5951 5963 0
5998 5964 5965 0
5998 5986 5964 0
5978 5965 5926 0
5978 5998 5965 0
5944 5987 5914 0
5999 5944 5966 0
6000 5966 5967 0
6001 5968 5980 0
5988 5946 5947 0
5988 5931 5946 0
5989 5988 5955 0
5934 5933 5969 0
5982 5981 5939 0
5992 5991 5971 0
6002 5992 5940 0
5960 6002 5940 0
5993 5983 5941 0
6003 5974 5962 0
5985 6003 5962 0
5995 5985 5975 0
6004 5997 5963 0
6004 5963 5977 0
5998 5978 5987 0
6000 5967 5928 0
6005 6000 5928 0
6005 5928 5953 0
5954 6005 5953 0
5979 5954 5899 0
6006 5979 5968 0
5931 6007 5980 0
6008 5931 5988 0
5989 5934 5969 0
6009 5989 5969 0
6010 6009 5969 0
6010 5969 5990 0
6011 5990 5957 0
6012 5957 5970 0
6012 5970 5981 0
6013 5981 5982 0
6013 6012 5981 0
5991 6013 5982 0
5983 6014 5960 0
6015 5993 5972 0
6016 5984 5973 0
6016 5973 5994 0
6003 5994 5974 0
6017 5986 5998 0
6000 5999 5966 0
6018 6006 5968 0
6007 6001 5980 0
6008 6019 5931 0
6013 5957 6012 0
6013 6011 5957 0
6020 5992 6002 0
6014 6002 5960 0
5984 6021 5972 0
6016 6022 5984 0
6023 5996 5997 0
6024 5977 5986 0
6024 6004 5977 0
6017 6024 5986 0
6017 5998 5987 0
6025 5987 5944 0
6025 6017 5987 0
5999 6025 5944 0
6026 5999 6000 0
6027 6000 6005 0
5954 6027 6005 0
6001 6018 5968 0
6019 6007 5931 0
6010 5990 6011 0
5993 6014 5983 0
6021 6015 5972 0
6022 6021 5984 0
6028 6022 6016 0
6029 6016 5994 0
6003 6029 5994 0
6030 5985 5995 0
6023 5995 5996 0
6023 5997 6004 0
6031 6023 6004 0
6032 5999 6026 0
6033 6026 6000 0
6033 6032 6026 0
6033 6000 6027 0
6034 6027 5954 0
5979 6034 5954 0
6035 6008 5988 0
6036 5988 5989 0
6009 6036 5989 0
6037 6009 6010 0
6037 6010 6011 0
6038 6037 6011 0
6038 6011 6013 0
6039 5991 5992 0
6020 6039 5992 0
6040 6020 6002 0
6041 5993 6015 0
6042 6041 6015 0
6042 6015 6021 0
6029 6028 6016 0
6043 6029 6003 0
6030 6003 5985 0
6044 6031 6004 0
6044 6004 6024 0
6044 6024 6017 0
6044 6017 6025 0
6045 6025 5999 0
6045 5999 6032 0
6046 6032 6033 0
6027 6046 6033 0
6047 5979 6006 0
6047 6034 5979 0
6048 6001 6007 0
6049 6007 6019 0
6035 6019 6008 0
6050 6035 5988 0
6050 5988 6036 0
6037 6036 6009 0
6038 6013 5991 0
6039 6038 5991 0
6040 6051 6020 0
6040 6002 6014 0
6041 6040 6014 0
6041 6014 5993 0
6052 6021 6022 0
6028 6052 6022 0
6043 6003 6030 0
6045 6044 6025 0
6047 6027 6034 0
6053 6047 6006 0
6053 6006 6018 0
6054 6018 6001 0
6054 6053 6018 0
6048 6054 6001 0
6049 6048 6007 0
6055 6019 6035 0
6055 6035 6050 0
6051 6039 6020 0
6056 5995 6023 0
6057 6023 6031 0
6057 6031 6044 0
6047 6046 6027 0
6058 6050 6036 0
6058 6055 6050 0
6058 6036 6037 0
6059 6060 6040 0
6041 6059 6040 0
6061 6042 6021 0
6061 6021 6052 0
6062 6028 6029 0
6062 6063 6028 0
6043 6062 6029 0
6056 6030 5995 0
6064 6056 6023 0
6057 6064 6023 0
6065 6044 6045 0
6046 6045 6032 0
6048 6053 6054 0
6066 6019 6055 0
6066 6049 6019 0
6067 6037 6038 0
6067 6038 6039 0
6067 6039 6051 0
6060 6051 6040 0
6068 6059 6041 0
