#!ascii version written be Caret
6100 12196
-5.487833 -7.658840 41.342651 0
-4.597383 -6.845286 41.749607 0
-1.966898 16.940023 41.078812 0
-3.395738 19.259876 41.006672 0
-1.761783 26.639589 42.578114 0
-2.823536 31.791584 41.380756 0
-2.471443 36.198429 38.647820 0
-3.342872 54.635906 21.670124 0
-5.877195 62.505478 11.586920 0
-6.460431 63.765842 9.547263 0
-7.676069 64.466644 6.981791 0
-9.661789 67.242142 -3.497576 0
-12.681602 65.056427 -9.532292 0
-17.062366 59.234356 -18.710138 0
-4.882020 46.523746 -15.128142 0
-9.152056 25.805445 -17.090117 0
-28.277658 19.027321 -27.796024 0
-29.323381 14.761386 -26.912621 0
-29.147003 -27.616678 -8.612213 0
-26.784391 -35.418530 0.362423 0
-26.320665 -38.442524 7.160572 0
-26.687527 -35.689323 21.569479 0
-20.622442 -26.117193 29.933542 0
-18.528025 -24.004324 30.062172 0
-17.268709 -21.772236 30.189247 0
-14.704722 -19.561985 31.684296 0
-14.210679 -14.192527 44.463593 0
-7.588265 -3.055394 43.401531 0
-2.741103 28.964890 42.578754 0
-3.378706 38.712307 36.601768 0
-3.824796 56.048504 20.026154 0
-8.827864 64.867409 4.090502 0
-15.482295 62.260490 -15.403893 0
-11.054556 14.267434 -23.968990 0
-19.585228 16.866850 -26.696032 0
-24.998390 22.201597 -24.802469 0
-29.648129 6.400469 -27.767265 0
-28.585003 -8.504041 -25.422667 0
-28.320501 -9.860457 -23.587126 0
-28.109186 -12.890264 -21.878536 0
-28.491922 -29.975983 -6.712433 0
-27.594622 -33.068142 -2.876704 0
-27.851973 -34.036060 -0.458382 0
-26.828753 -36.683723 3.599874 0
-26.112759 -39.488209 10.083577 0
-26.416147 -39.594318 13.801630 0
-26.005209 -34.221611 23.968264 0
-16.254189 -19.838675 30.593363 0
-13.803739 -17.549129 36.045738 0
-14.507917 -12.733167 46.160004 0
-10.118107 -9.413863 47.661858 0
-9.092360 -0.129795 46.747143 0
-10.319585 5.355137 46.764297 0
-6.761251 9.374380 42.472298 0
-3.680287 13.193097 40.218235 0
-5.733095 39.448109 34.995308 0
-4.100656 48.543137 26.998367 0
-4.893913 51.336338 23.663889 0
-5.315920 57.239109 17.809191 0
-6.310707 58.929790 15.213763 0
-9.937205 66.011406 -1.350185 0
-11.277273 66.372223 -7.381200 0
-14.787945 62.953144 -12.370773 0
-15.726783 51.710434 -20.680893 0
-6.518034 47.402351 -15.116241 0
-10.705406 16.951260 -20.327209 0
-23.959486 19.614317 -23.730516 0
-28.787300 18.099174 -25.427069 0
-29.856916 11.097588 -26.420626 0
-29.915464 1.533371 -26.313612 0
-29.547888 -1.474005 -25.922831 0
-28.566347 -6.923701 -25.082563 0
-28.248264 -15.316301 -20.089817 0
-29.571285 -23.326206 -11.999902 0
-29.215990 -30.487553 -3.975600 0
-28.151770 -34.991112 2.535060 0
-24.063805 -31.213278 27.612995 0
-14.097322 -18.436054 33.506237 0
-13.972081 -11.571270 47.525398 0
-12.296491 -9.710741 47.940819 0
-6.615546 -5.592539 40.436661 0
-5.683010 10.649176 41.116638 0
-4.636566 22.184496 41.404476 0
-6.013083 46.490810 27.483183 0
-5.322657 53.419312 21.431421 0
-7.243036 60.404404 12.541610 0
-8.301880 61.726685 9.406075 0
-11.659369 64.756111 -4.905869 0
-17.632204 55.433529 -19.730745 0
-3.244443 42.376270 -12.515320 0
-21.855127 18.934731 -25.061773 0
-29.995703 15.078962 -24.645243 0
-30.271706 12.669312 -24.881851 0
-30.312435 4.517424 -25.390831 0
-28.344376 -13.242841 -19.908075 0
-29.107298 -18.889738 -16.093901 0
-29.848701 -25.019688 -9.807744 0
-30.779675 -25.501856 -7.207587 0
-29.864450 -28.146458 -6.016060 0
-28.059952 -36.166183 5.805946 0
-24.465223 -28.387083 28.943289 0
-11.865571 -8.638641 46.509323 0
-9.976526 -8.647103 45.516743 0
-8.237912 -8.550673 43.354160 0
-6.900856 -4.225311 41.808090 0
-10.956768 3.477751 46.589840 0
-6.221537 12.782936 39.710091 0
-3.562299 26.686672 42.808697 0
-3.840775 30.551151 42.295361 0
-6.947601 43.690598 29.736332 0
-4.944267 49.286530 25.617622 0
-5.590091 55.282234 19.581652 0
-9.513049 62.434326 6.048333 0
-9.899306 64.699959 1.352396 0
-10.984360 64.110703 -1.235314 0
-17.083681 59.761002 -16.285206 0
-17.968025 57.019703 -17.664959 0
-10.787982 48.293976 -16.832161 0
-3.779459 38.961327 -11.656569 0
-4.782965 36.051422 -11.905133 0
-8.123579 28.493408 -15.158975 0
-10.574158 19.220551 -18.916142 0
-19.081776 14.157850 -25.942755 0
-30.151693 8.027908 -25.837244 0
-30.823643 1.357551 -23.507605 0
-29.483047 -20.900265 -13.914523 0
-26.472338 -37.331203 20.299263 0
-22.986437 -26.917500 29.811745 0
-20.304487 -21.017996 29.961386 0
-16.609482 -16.855968 31.574406 0
-15.550559 -13.940163 42.430847 0
-15.529079 -14.707633 40.042595 0
-16.677095 -12.044682 43.842480 0
-16.123560 -10.608228 45.774498 0
-14.408749 -9.925147 47.233261 0
-8.664649 -1.990174 43.757744 0
-9.881165 -0.597795 44.132092 0
-5.610994 19.656103 40.378601 0
-4.936284 34.437866 39.516308 0
-4.119427 36.721436 38.293999 0
-10.253352 62.900738 3.387064 0
-13.662197 62.960476 -7.645350 0
-14.093279 63.318932 -9.959807 0
-18.023090 53.708736 -17.554878 0
-16.537676 51.566811 -18.404289 0
-14.719289 49.624062 -17.023491 0
-5.831050 46.872925 -13.423497 0
-3.915573 45.198669 -12.815973 0
-6.930326 30.632261 -13.093746 0
-10.323045 20.912577 -16.850027 0
-15.612666 11.720212 -27.059439 0
-20.831926 16.592129 -25.156210 0
-26.152857 20.318245 -23.589909 0
-27.926022 18.989618 -23.270464 0
-29.471203 16.845783 -22.326096 0
-30.267439 15.432993 -22.927629 0
-30.819649 12.692641 -22.920166 0
-30.094078 -0.036141 -24.875164 0
-29.511028 -3.756422 -24.109194 0
-29.021627 -6.394208 -23.339758 0
-28.438639 -10.663754 -21.265997 0
-28.988241 -15.819793 -17.862600 0
-30.441286 -20.833384 -12.179745 0
-31.065931 -22.325617 -9.844835 0
-31.008917 -27.662691 -3.730619 0
-29.617302 -32.806549 1.200494 0
-29.820808 -33.634155 4.589041 0
-28.126707 -37.034725 8.778936 0
-27.858160 -37.917881 11.515024 0
-27.414829 -38.186012 15.882040 0
-27.134529 -37.416080 18.523760 0
-26.336639 -31.634626 25.708000 0
-20.584034 -23.363110 30.177271 0
-19.056376 -18.880802 29.739767 0
-17.468563 -18.024900 30.265196 0
-10.112847 -8.094347 43.735191 0
-10.848317 1.494516 45.724758 0
-11.469546 6.840241 44.732155 0
-10.090310 8.203298 43.779812 0
-8.951264 9.195694 42.529373 0
-4.168991 15.090240 39.967930 0
-5.728585 17.471233 39.636864 0
-7.248546 41.058197 32.533424 0
-7.671292 51.333496 21.409344 0
-7.530086 54.224197 18.920288 0
-8.699689 58.031021 13.500339 0
-7.740581 56.668705 16.296265 0
-9.244746 59.178265 11.252301 0
-10.130732 60.397129 7.694277 0
-16.587919 60.535801 -13.378636 0
-8.508918 47.530910 -14.537614 0
-10.926982 14.109581 -21.122219 0
-13.324105 10.936107 -26.028927 0
-30.764433 9.762719 -23.497581 0
-30.307745 -1.786090 -23.510380 0
-28.603695 -8.634332 -22.262827 0
-30.425694 -18.448805 -13.977800 0
-29.129816 -32.129993 -1.512238 0
-28.845276 -36.474365 13.685162 0
-28.150913 -32.208427 22.862001 0
-26.071716 -29.432507 27.562735 0
-23.512363 -24.480392 30.145262 0
-14.075868 -8.586164 46.553303 0
-9.439960 -2.032353 40.788746 0
-4.441930 24.764156 42.414185 0
-4.716094 29.109518 42.491306 0
-5.163450 31.791737 41.260414 0
-5.536839 37.118015 37.367146 0
-6.806399 49.083172 24.274231 0
-10.366346 58.977226 9.322434 0
-11.276926 62.253525 1.087368 0
-12.045159 62.272625 -1.672593 0
-15.262375 61.698547 -10.252807 0
-5.629546 33.296150 -11.212029 0
-9.624231 23.290714 -15.469797 0
-17.563738 11.504966 -25.789185 0
-26.210300 17.954796 -21.890327 0
-27.868711 16.892412 -20.902531 0
-28.881676 17.062595 -21.283920 0
-30.968424 13.140565 -21.266352 0
-30.914858 6.569064 -23.196085 0
-30.452360 -4.639894 -21.714708 0
-30.087078 -16.344809 -15.802611 0
-29.970613 -34.148113 8.374800 0
-29.378027 -35.741432 10.899795 0
-28.589556 -36.266727 16.430351 0
-28.154776 -34.058075 20.932878 0
-25.243877 -25.583647 29.662088 0
-22.791969 -22.370504 30.112505 0
-15.552476 -16.289776 34.174110 0
-16.103830 -14.933187 36.979794 0
-17.606239 -12.467831 41.121124 0
-12.553675 -7.518357 44.186401 0
-7.905723 -6.551257 39.563812 0
-8.489864 -3.630233 39.329601 0
-12.329689 5.164008 44.829659 0
-8.937545 10.940329 40.299202 0
-10.855704 60.287098 5.980848 0
-12.637444 62.352356 -3.718075 0
-8.381307 26.108646 -13.184974 0
-11.637527 11.383167 -23.627478 0
-21.108562 13.677291 -23.492855 0
-22.728664 16.448219 -23.197939 0
-30.354822 14.625069 -20.817282 0
-31.165699 3.738283 -22.692793 0
-29.743446 -8.074923 -20.703024 0
-29.291891 -11.311696 -19.343731 0
-29.162968 -13.470071 -18.380465 0
-31.925652 -22.923082 -7.581948 0
-31.959051 -24.704412 -5.045656 0
-18.172937 -9.880018 43.839088 0
-14.655194 -7.412128 44.768528 0
-9.720039 -7.657691 41.802952 0
-11.515637 9.609064 41.023968 0
-9.238424 44.684639 25.928875 0
-7.814267 46.985287 25.328411 0
-11.348726 56.381618 11.068288 0
-11.958769 57.954575 6.780913 0
-11.529572 60.336002 3.711612 0
-16.501753 60.136944 -10.787873 0
-10.663390 15.893749 -17.155565 0
-24.739206 15.940787 -21.398153 0
-29.077835 14.632849 -19.763224 0
-31.113623 10.506312 -20.995222 0
-31.304270 -1.538465 -21.640160 0
-30.598751 -13.382654 -16.736483 0
-31.667856 -15.733810 -14.028873 0
-31.653416 -18.998940 -11.655507 0
-30.504364 -30.336388 -1.108513 0
-26.807854 -26.981041 28.397930 0
-18.910782 -16.675728 29.799706 0
-17.702620 -13.072842 38.799328 0
-16.292162 -8.270294 45.302383 0
-12.577225 -6.763197 41.855198 0
-12.673170 3.340994 43.819824 0
-12.079906 8.124615 42.806522 0
-7.696640 35.674706 37.008621 0
-8.785736 38.268681 33.942619 0
-9.114985 47.829956 23.125488 0
-13.694876 61.669506 -5.408486 0
-7.072281 46.439293 -11.765098 0
-3.609053 43.822540 -10.887197 0
-3.376951 40.741661 -10.549949 0
-23.048834 13.496614 -21.491194 0
-26.846344 14.962459 -19.923058 0
-30.598434 11.959486 -19.453863 0
-31.113976 7.523194 -20.640055 0
-31.348385 4.618754 -20.429829 0
-32.560543 -19.938797 -8.846100 0
-32.802032 -17.029068 -11.346480 0
-32.647507 -22.104290 -6.285097 0
-28.577446 -34.988907 18.683859 0
-28.081924 -28.421549 26.371775 0
-26.026926 -22.421709 29.586811 0
-19.072924 -10.468630 41.753407 0
-17.568590 -8.966969 44.855740 0
-15.108841 -6.243681 42.398773 0
-9.402380 -6.935064 39.848301 0
-11.670535 1.222488 43.619827 0
-13.317995 6.808944 42.806858 0
-7.039352 32.729282 39.662086 0
-9.332222 40.709023 30.895824 0
-9.385170 42.659740 28.400928 0
-10.135393 52.136593 18.127596 0
-9.356083 54.651825 16.676838 0
-9.833616 56.113125 14.322566 0
-15.512877 60.214783 -7.637877 0
-18.065039 58.011089 -14.758338 0
-5.126569 46.205971 -11.895452 0
-3.873119 41.865677 -9.290848 0
-4.611353 35.951889 -9.412273 0
-9.428223 22.476631 -13.365138 0
-10.187326 19.556637 -14.811597 0
-19.441423 11.443693 -23.994770 0
-30.689377 8.606606 -18.703157 0
-31.732380 1.329556 -20.543224 0
-31.308453 -6.457460 -19.501471 0
-30.399176 -10.420879 -18.508951 0
-31.506086 -28.324165 -0.439029 0
-30.929613 -31.049623 2.439865 0
-30.968191 -31.712349 6.529476 0
-30.501665 -33.397530 12.421065 0
-29.921988 -34.107956 15.727924 0
-27.166397 -24.568544 29.056690 0
-23.158506 -19.350822 29.565689 0
-21.476101 -18.263491 29.367418 0
-21.575918 -15.711064 28.853470 0
-17.573158 -14.597647 32.827030 0
-16.827196 -14.683730 34.662827 0
-19.021677 -12.336828 36.647999 0
-11.276996 -6.716726 40.303429 0
-11.411409 0.233003 41.561253 0
-6.725978 15.420430 38.973370 0
-5.612836 27.179384 42.336857 0
-12.740093 59.829712 0.526083 0
-18.720947 55.594021 -15.692487 0
-4.976146 45.070107 -10.436222 0
-4.310770 43.658791 -9.380127 0
-10.589808 18.722485 -16.946758 0
-32.063766 -4.235369 -19.291285 0
-31.647339 -10.554987 -16.978203 0
-32.453968 -12.244606 -15.056238 0
-33.076168 -14.483477 -12.798438 0
-33.339645 -17.514641 -9.388638 0
-31.979778 -25.634043 -2.225261 0
-29.193529 -32.788048 20.356205 0
-28.191990 -30.335737 24.728247 0
-13.526811 8.368992 41.070324 0
-8.980457 12.950992 38.764313 0
-6.605409 20.872948 40.347813 0
-6.560503 29.838087 41.387024 0
-9.719180 49.900085 20.713551 0
-13.132546 57.786858 3.315700 0
-13.490184 60.250675 -2.557220 0
-19.176804 53.368782 -14.426195 0
-17.635197 50.882011 -15.513032 0
-3.848204 38.914719 -9.213977 0
-25.188643 12.490035 -19.384687 0
-27.695292 12.195875 -18.345167 0
-29.498659 12.479004 -18.531567 0
-29.635674 10.231479 -17.827234 0
-32.134613 -1.439840 -20.151684 0
-31.221704 -8.517846 -18.540051 0
-33.647694 -15.138077 -10.380184 0
-32.463562 -22.725182 -3.869231 0
-28.812252 -25.263756 27.428106 0
-24.926208 -20.290121 29.692928 0
-19.872757 -14.727774 29.730686 0
-18.539122 -13.163046 34.585514 0
-19.857220 -10.796794 39.100994 0
-19.795687 -8.630639 42.253258 0
-18.673605 -7.546660 43.328423 0
-11.694871 -5.843679 38.444508 0
-10.740511 -5.169803 37.205818 0
-9.102801 -4.446288 37.669537 0
-13.822785 5.254694 42.423740 0
-8.495791 14.631442 38.343987 0
-8.255630 19.691999 38.935497 0
-6.206976 24.952623 41.693455 0
-14.992290 59.179298 -4.549103 0
-16.969046 59.162750 -9.756234 0
-6.359429 30.307873 -10.237639 0
-15.739366 9.517514 -25.338869 0
-30.363937 4.898090 -17.611330 0
-32.509472 -1.641687 -18.646769 0
-33.687004 -12.355072 -12.625620 0
-33.026424 -17.812189 -7.254434 0
-32.865364 -20.305471 -6.022673 0
-31.562168 -28.498991 2.186021 0
-29.957399 -32.806557 18.364050 0
-29.761284 -28.949917 23.452168 0
-28.405710 -22.834141 28.397005 0
-18.649378 -14.339121 31.172276 0
-17.164284 -6.463188 43.055843 0
-12.918943 2.252467 41.785236 0
-8.914557 32.496056 38.108021 0
-9.710460 35.791153 35.191250 0
-10.786205 38.327057 31.682699 0
-10.637432 41.028461 28.787622 0
-11.138131 45.299122 22.619413 0
-11.296576 49.260151 19.332979 0
-11.204883 54.058060 14.669926 0
-17.948841 58.219460 -11.903705 0
-13.379620 48.424732 -15.347119 0
-9.272463 46.750507 -12.353519 0
-6.624738 45.121368 -9.841700 0
-7.261959 28.286030 -11.344975 0
-8.856400 22.770788 -11.258453 0
-11.110032 11.113284 -20.868847 0
-17.999456 8.627147 -23.254698 0
-21.077232 10.338765 -21.553619 0
-23.196522 11.287947 -20.143461 0
-28.097399 9.436702 -17.081976 0
-29.230923 7.044733 -16.828117 0
-31.864317 0.176689 -17.511600 0
-32.623661 -7.774893 -16.748869 0
-31.406145 -29.694782 4.335141 0
-31.124821 -31.296133 10.545374 0
-30.241549 -30.530058 20.601494 0
-26.923609 -19.788029 29.032278 0
-25.900099 -17.627762 28.569069 0
-23.791500 -16.579121 28.590782 0
-21.099394 -8.399958 39.969456 0
-13.140106 -5.775789 39.395317 0
-10.956865 -0.643462 39.825333 0
-8.350415 30.074722 39.805470 0
-10.458806 33.103584 35.821705 0
-11.257114 35.666744 33.143700 0
-11.772658 39.172585 28.770676 0
-11.301426 41.404606 26.598347 0
-10.950480 42.817474 25.462166 0
-10.960826 47.618889 21.078289 0
-13.008895 55.744804 7.947330 0
-14.071870 55.627178 4.863477 0
-13.960835 57.547764 1.008309 0
-14.738719 57.682583 -1.324363 0
-16.808390 57.674164 -6.129677 0
-19.054508 55.973522 -13.143970 0
-19.466928 51.065876 -13.237538 0
-11.390142 47.408474 -13.846849 0
-5.920269 42.981400 -8.324691 0
-5.548836 32.361618 -8.363063 0
-10.853395 12.819068 -18.741602 0
-12.465443 8.601428 -23.552628 0
-14.080172 7.717413 -24.082573 0
-23.285967 8.990746 -18.693083 0
-25.933716 9.668776 -17.573233 0
-31.333014 2.569069 -18.238161 0
-32.819569 -4.439174 -16.831778 0
-33.351120 -10.383894 -14.695962 0
-31.550966 -26.129391 0.835754 0
-31.070530 -27.101835 4.213053 0
-31.297663 -29.070057 6.384240 0
-30.974869 -32.124466 14.886107 0
-30.928333 -31.293179 17.162374 0
-29.744883 -26.770559 25.497946 0
-19.946644 -12.530163 32.186352 0
-21.077202 -11.086716 33.873219 0
-20.947168 -10.554430 36.600304 0
-20.548021 -6.968301 41.310646 0
-19.505302 -5.741032 41.266277 0
-17.736485 -4.964850 40.302017 0
-15.113826 -5.321179 39.926762 0
-14.924418 6.948611 40.039852 0
-12.393745 11.258041 38.895752 0
-9.640045 17.140625 37.738205 0
-7.826119 22.139130 39.847099 0
-8.065056 24.481165 40.145309 0
-7.439181 27.321884 41.123741 0
-12.227855 36.850880 30.632645 0
-12.008489 42.215088 23.722725 0
-12.868321 53.465755 12.363067 0
-17.588779 57.881100 -8.760115 0
-8.978498 45.205147 -10.215762 0
-5.040680 40.478313 -7.287735 0
-4.046175 39.820084 -7.974369 0
-6.281911 29.378279 -8.396631 0
-8.134776 24.848753 -10.644869 0
-11.482601 8.353590 -21.015469 0
-27.082041 7.075754 -16.250231 0
-27.656216 3.642918 -15.351469 0
-30.045300 0.829063 -15.521668 0
-32.622162 -1.977904 -17.007744 0
-31.723410 -23.479313 -1.222524 0
-31.273409 -29.613581 8.718958 0
-31.534763 -29.543507 14.572535 0
-28.919081 -20.412130 27.723391 0
-20.679546 -12.837958 30.247999 0
-14.056536 -4.515589 36.766582 0
-12.092899 0.518456 39.032024 0
-13.293685 2.093622 39.435902 0
-14.399384 4.275986 40.182320 0
-11.044312 12.615245 38.359394 0
-12.875387 46.410610 19.018459 0
-15.461257 55.144726 1.663163 0
-16.203455 56.944286 -3.510409 0
-19.014389 56.192677 -10.269775 0
-13.830467 47.605579 -13.681133 0
-11.188347 46.060070 -11.546622 0
-4.754574 37.474220 -7.288347 0
-5.222828 34.596703 -7.094634 0
-7.278392 26.469406 -9.030986 0
-10.893884 10.055435 -18.363348 0
-15.938788 7.610078 -23.942886 0
-19.465322 7.878073 -21.394043 0
-24.475872 6.859988 -16.653820 0
-31.806269 -2.280493 -15.320915 0
-33.065212 -6.789642 -14.558891 0
-33.589123 -9.186320 -13.920990 0
-33.845356 -10.753173 -12.036640 0
-33.516743 -12.780805 -10.061849 0
-33.364689 -15.298724 -8.440225 0
-31.880171 -19.905422 -3.967661 0
-31.437634 -29.222271 18.340475 0
-30.442343 -24.555870 25.700861 0
-30.107561 -22.359800 26.575066 0
-28.105940 -18.081244 27.910570 0
-24.501751 -13.824682 27.510780 0
-22.250725 -8.631332 37.476753 0
-17.182348 -3.998806 37.669407 0
-15.452521 -4.566202 38.165070 0
-11.153444 -3.087919 34.709721 0
-10.414476 -2.100776 36.644390 0
-11.245004 -0.630724 37.653385 0
-14.508175 9.670675 38.949482 0
-11.105236 14.803270 37.362297 0
-10.215311 29.822588 37.598263 0
-12.785759 43.439075 21.096634 0
-12.587318 51.479965 15.327519 0
-13.736330 53.824802 9.570251 0
-14.630484 53.917488 6.719599 0
-16.149025 48.423336 -13.930319 0
-5.836163 41.577942 -7.162756 0
-9.638348 19.931244 -12.028845 0
-20.810263 7.316070 -19.597364 0
-21.979321 5.713766 -17.315781 0
-25.698442 5.236198 -15.582556 0
-32.654747 -4.637861 -14.860450 0
-30.738260 -27.212852 8.120358 0
-31.129656 -28.026993 11.276531 0
-31.262596 -27.747305 21.144091 0
-28.340536 -15.656628 26.565964 0
-26.141321 -15.063601 27.361134 0
-22.960896 -12.429338 28.445925 0
-21.773190 -5.585099 39.094772 0
-9.005610 27.558363 39.592793 0
-12.154840 32.918758 33.251167 0
-12.970272 36.959133 28.297972 0
-12.920030 38.879196 25.210842 0
-12.197563 49.762707 17.634079 0
-13.881988 51.424171 13.061667 0
-17.976332 55.186432 -4.346444 0
-18.563522 55.962765 -7.334602 0
-19.933392 54.202126 -11.469420 0
-14.044472 46.199913 -11.796898 0
-7.512860 44.159836 -8.909072 0
-8.167012 23.267132 -9.125753 0
-10.218895 16.992125 -13.359531 0
-10.686763 12.452149 -16.134760 0
-12.831391 5.717354 -21.648838 0
-15.662727 5.806423 -22.233551 0
-17.909512 5.649138 -20.730310 0
-23.202255 3.524166 -15.234198 0
-24.862526 1.745979 -13.885907 0
-28.178560 0.698700 -14.224753 0
-30.167959 -2.588934 -13.837542 0
-31.818087 -15.757853 -6.677087 0
-30.594231 -22.060724 -0.846208 0
-29.443422 -20.325138 -1.953953 0
-30.084623 -24.363556 2.085568 0
-29.826977 -25.646795 5.541403 0
-31.632082 -27.330723 13.888834 0
-31.954699 -27.030073 18.296106 0
-31.016171 -26.005405 23.595657 0
-31.393961 -22.980143 24.114939 0
-29.785187 -17.928816 26.363909 0
-22.429438 -9.434933 35.272923 0
-22.774759 -6.771760 38.142994 0
-20.443369 -4.433908 38.975632 0
-19.524637 -3.613074 37.474651 0
-12.444493 -4.069298 35.098545 0
-14.867358 11.869243 37.266308 0
-10.530349 19.809206 37.398064 0
-10.304660 22.705650 37.832279 0
-13.000431 34.228062 30.406097 0
-14.896078 51.312557 10.656734 0
-15.765118 51.728130 7.509848 0
-16.172504 52.896889 4.123404 0
-16.646219 55.070732 -1.200954 0
-20.283859 52.293865 -11.958255 0
-18.763781 48.993359 -12.487242 0
-11.619720 44.231476 -9.780395 0
-6.598418 28.381243 -6.627491 0
-5.886194 30.861141 -6.718976 0
-8.898872 20.269991 -9.239375 0
-9.638292 17.651838 -10.541319 0
-10.460365 14.426092 -14.069680 0
-19.657629 4.962466 -18.573322 0
-26.459894 0.440762 -13.503042 0
-32.952351 -8.842869 -12.039925 0
-32.717960 -12.945822 -8.642541 0
-31.865143 -25.552046 16.138130 0
-31.079990 -19.834110 24.701860 0
-21.983593 -11.928697 29.569942 0
-22.666327 -10.649873 30.399721 0
-23.850502 -7.721609 34.943539 0
-13.024612 1.338332 36.865562 0
-16.226879 6.140569 37.490211 0
-13.476413 13.630499 36.909805 0
-13.671184 16.393217 35.631001 0
-11.964958 30.181047 34.689651 0
-13.575061 35.086037 27.149639 0
-13.561756 40.076298 21.192533 0
-13.987172 42.811096 18.855301 0
-13.598662 48.666115 16.273739 0
-14.756223 49.130169 13.584919 0
-20.747766 52.389599 -9.518288 0
-20.592249 50.262779 -10.575538 0
-17.401297 46.574188 -11.276909 0
-8.979023 42.759060 -8.237018 0
-7.241754 40.686607 -6.865053 0
-6.037194 38.440006 -6.219418 0
-6.340619 31.780699 -5.782290 0
-14.236309 4.157605 -21.240416 0
-15.485408 3.177768 -19.718107 0
-17.679790 3.410024 -18.632292 0
-19.693829 3.009230 -16.536312 0
-27.281364 -2.606169 -12.771322 0
-31.598730 -5.790699 -12.967596 0
-32.668556 -10.805154 -10.079428 0
-30.440304 -18.151161 -4.141454 0
-28.393721 -21.991785 0.291899 0
-29.596651 -25.578796 8.086797 0
-29.693760 -24.628855 10.741076 0
-31.096428 -25.698471 13.189108 0
-31.933794 -24.854088 21.453789 0
-27.487028 -12.312418 25.526239 0
-25.580122 -11.135305 26.568361 0
-22.967585 -9.715858 31.958614 0
-23.412046 -8.883895 33.230900 0
-24.033907 -6.308584 35.980217 0
-23.485651 -4.867315 36.757267 0
-12.425027 18.601711 35.897053 0
-10.122350 26.059673 38.291519 0
-19.511145 54.018429 -5.987620 0
-19.970263 54.235344 -8.601594 0
-6.233989 35.489960 -5.732084 0
-9.909569 14.571242 -10.691410 0
-10.842396 7.442595 -17.801983 0
-20.022638 1.248141 -14.419052 0
-29.240263 -4.812536 -12.418560 0
-31.575493 -12.136621 -8.634295 0
-29.850693 -16.416035 -5.331472 0
-27.449696 -23.200296 2.786608 0
-28.247507 -24.284714 4.686194 0
-32.244217 -24.570614 18.780783 0
-30.835442 -16.071068 24.333673 0
-24.661442 -8.016056 30.472017 0
-22.414772 -3.497504 36.049694 0
-16.546041 -3.536656 35.777733 0
-12.308468 0.186193 34.789310 0
-14.767817 3.513542 37.111652 0
-11.391044 27.736479 36.447037 0
-13.233786 31.064377 31.405844 0
-13.655465 36.155945 24.880213 0
-14.315693 44.848396 17.371120 0
-14.845208 46.578613 15.389519 0
-16.711517 49.140072 8.867889 0
-18.167028 53.603363 -2.040405 0
-14.578374 43.830200 -9.790453 0
-9.632581 40.095596 -6.954011 0
-7.463243 28.355793 -4.932583 0
-7.771722 25.546989 -4.846481 0
-7.315269 25.125225 -6.449657 0
-7.997160 22.310038 -7.035657 0
-10.347524 11.841801 -13.058189 0
-10.559779 9.574828 -15.314861 0
-13.241758 3.031294 -19.895910 0
-22.232698 0.738795 -13.333170 0
-23.974852 -1.217487 -12.405254 0
-23.865242 -3.640153 -11.548411 0
-24.777744 -5.658103 -11.165945 0
-29.660982 -7.222850 -11.362413 0
-31.065212 -9.188040 -10.556596 0
-30.490202 -13.685532 -7.416682 0
-27.991856 -17.501831 -4.096258 0
-28.514713 -19.007278 -2.819636 0
-25.920424 -19.904423 -1.589117 0
-26.119926 -21.809612 0.975959 0
-28.055923 -24.392340 7.283650 0
-29.509884 -13.877584 24.856976 0
-27.606478 -8.651811 24.498310 0
-25.224861 -9.104043 27.620102 0
-24.806341 -7.100128 32.554214 0
-25.019478 -5.843827 33.663692 0
-18.899969 -2.620888 34.557693 0
-16.171812 -3.045788 33.866280 0
-14.174234 -3.509006 33.954426 0
-13.154111 -2.855262 32.564552 0
-16.382452 8.488950 37.694996 0
-12.438263 20.945362 35.749699 0
-15.852419 49.042751 11.258829 0
-8.012273 37.718056 -5.859102 0
-11.395074 5.709067 -19.488558 0
-16.109686 1.463625 -17.257191 0
-17.715927 0.826051 -15.390187 0
-27.106564 -6.857956 -11.069413 0
-29.587936 -11.739382 -8.576756 0
-28.323099 -14.796907 -6.428896 0
-32.036335 -21.599304 21.924000 0
-29.670721 -11.833886 23.557558 0
-24.496986 -4.893317 35.598572 0
-20.692101 -2.789881 35.534470 0
-12.632067 -1.765133 31.601141 0
-12.266307 -0.654872 32.614933 0
-14.105174 2.213832 34.363472 0
-16.806398 10.849927 36.397949 0
-16.393782 13.868484 35.185265 0
-15.037233 19.709782 33.278572 0
-11.593509 25.068336 36.451180 0
-13.724496 37.034691 22.522274 0
-15.358626 43.177948 15.901774 0
-18.098579 51.989685 0.831961 0
-19.621258 52.357914 -3.525147 0
-20.650816 52.196079 -6.538541 0
-19.314062 47.297611 -10.656744 0
-11.644324 41.581299 -8.107950 0
-7.448718 32.718742 -4.934534 0
-9.204732 16.644762 -8.060058 0
-10.705609 4.683434 -16.857885 0
-11.747305 3.294056 -18.628016 0
-13.053080 1.112704 -17.503424 0
-16.920408 -1.230249 -13.405773 0
-19.400024 -0.727176 -12.769782 0
-20.892822 -1.563669 -11.970305 0
-28.259212 -9.588377 -9.855902 0
-25.775129 -17.013073 -4.557181 0
-24.972742 -22.477852 2.955721 0
-25.707901 -23.090038 5.230490 0
-31.030066 -23.440201 14.452388 0
-32.059551 -21.973228 18.086374 0
-32.298847 -23.121233 20.227850 0
-32.286499 -19.135361 20.837036 0
-31.808191 -17.926384 23.196766 0
-31.068708 -13.212105 22.835724 0
-29.267124 -9.719956 22.798243 0
-25.446388 -7.739496 28.774761 0
-25.866491 -5.053368 30.902519 0
-24.866394 -3.892588 33.560242 0
-21.460190 -2.022297 33.416542 0
-15.289104 -2.378662 31.571358 0
-15.722832 3.837727 34.219589 0
-16.505972 5.051188 35.413467 0
-18.283983 8.935140 35.120522 0
-16.529459 16.559607 33.729828 0
-13.030593 23.251442 34.591911 0
-12.636160 26.696995 34.481033 0
-13.824401 31.943932 28.304792 0
-14.869110 40.267044 17.442116 0
-15.947871 45.106476 14.094293 0
-20.560759 48.087559 -9.525020 0
-15.946942 45.135307 -10.590035 0
-13.223401 42.641483 -8.944398 0
-8.030660 34.828213 -5.149302 0
-8.157278 22.100889 -4.890760 0
-10.376066 6.957461 -14.875980 0
-13.845547 -0.507463 -15.900080 0
-15.667092 -0.436160 -15.223313 0
-20.729410 -3.710558 -11.004786 0
-21.729494 -6.011357 -10.429992 0
-27.292837 -12.298405 -8.158269 0
-23.500767 -18.735443 -3.049047 0
-27.692289 -23.478058 8.957488 0
-26.121235 -22.808163 7.505249 0
-31.285582 -20.926765 15.214018 0
-32.266918 -16.585812 21.729616 0
-31.046366 -10.626760 21.167429 0
-26.369831 -6.112349 28.248060 0
-18.174286 -2.128215 32.598667 0
-13.821590 1.569370 31.867851 0
-13.246612 28.485521 32.491657 0
-16.662203 46.527374 11.652836 0
-17.671274 49.870991 5.368043 0
-21.255987 50.766891 -7.900897 0
-10.356480 37.717953 -6.375599 0
-8.509994 29.669235 -4.671558 0
-8.624751 19.406807 -7.159557 0
-9.373751 12.621880 -7.479815 0
-9.921499 11.583213 -10.349174 0
-10.070315 8.779840 -12.051433 0
-17.653561 -3.081212 -11.450807 0
-22.111425 -8.266931 -9.913690 0
-24.688919 -8.154799 -10.327749 0
-25.123438 -10.803348 -9.085245 0
-25.191593 -14.336030 -6.851845 0
-23.003237 -16.872993 -5.030180 0
-23.669054 -21.325567 0.920549 0
-22.618382 -21.852880 3.781377 0
-29.574461 -21.932486 12.144457 0
-32.231308 -14.448120 21.284939 0
-27.422342 -6.307563 25.363655 0
-23.927721 -2.251629 32.879025 0
-20.082228 -0.964122 30.512850 0
-17.853298 6.741546 34.742126 0
-18.712711 11.877357 34.261932 0
-18.415230 17.566849 31.393936 0
-13.913768 33.488697 24.625751 0
-14.253110 37.099754 18.945200 0
-16.756430 43.736160 13.043801 0
-18.965244 49.655602 2.757041 0
-20.207569 50.539993 -1.981975 0
-21.386414 49.119076 -7.867449 0
-9.837041 35.260742 -5.703775 0
-9.417833 32.106396 -5.071931 0
-9.622448 25.817982 -4.182443 0
-10.065413 4.759274 -14.158428 0
-10.636516 1.810041 -15.593670 0
-11.264913 -0.052009 -15.773430 0
-14.076030 -2.029248 -13.861538 0
-14.653711 -3.464650 -11.900790 0
-17.340591 -5.340498 -10.011588 0
-19.303417 -6.220860 -9.868257 0
-21.778975 -20.216307 -1.072314 0
-23.896185 -21.331562 6.497142 0
-26.901049 -21.277639 9.171614 0
-32.123848 -12.076447 20.446074 0
-17.311327 -1.885221 31.279226 0
-15.702875 3.510069 31.763535 0
-17.587687 5.526928 32.779034 0
-14.132324 28.291338 29.594376 0
-14.109489 31.221901 25.870264 0
-13.880371 34.826180 21.697170 0
-16.553663 41.230824 13.931493 0
-21.285511 49.670307 -4.964834 0
-15.171790 40.856171 -8.447206 0
-12.530614 38.993710 -7.469024 0
-8.706825 18.243746 -5.129735 0
-9.002888 15.408575 -6.130559 0
-9.861476 5.955725 -12.292908 0
-10.121773 3.328735 -14.740526 0
-11.625122 -1.780999 -14.187482 0
-19.143185 -8.872751 -9.102822 0
-23.096319 -9.822056 -9.542320 0
-20.525034 -18.572760 -3.457237 0
-27.676401 -4.372873 26.359503 0
-22.589624 -1.080233 31.351330 0
-17.087912 -0.976115 29.109507 0
-14.567767 -1.477128 29.912025 0
-20.448198 10.153926 32.385422 0
-19.090172 14.758947 32.762108 0
-14.586500 22.971825 31.973122 0
-13.841279 25.733614 32.048573 0
-14.313037 29.364887 26.930267 0
-15.878323 38.340424 14.987877 0
-18.291964 43.151974 10.442134 0
-18.213308 46.578167 8.281468 0
-19.298367 48.360989 4.023977 0
-20.897779 48.465858 -0.448827 0
-19.832546 45.782295 -8.707164 0
-17.424433 43.788071 -9.220963 0
-12.254750 36.005180 -6.917547 0
-9.056636 22.973185 -3.759148 0
-10.184371 -0.536112 -14.106359 0
-12.361383 -3.529288 -12.427474 0
-11.982325 -5.393807 -10.280259 0
-14.764454 -5.260410 -10.187371 0
-17.140720 -7.551432 -9.063933 0
-20.659821 -11.412126 -8.536619 0
-22.812368 -13.050070 -7.893643 0
-22.264807 -15.171127 -6.572939 0
-21.067747 -21.247932 1.509899 0
-32.348534 -18.969858 17.731827 0
-32.846279 -16.037786 18.880644 0
-32.918148 -12.786314 18.600611 0
-31.033401 -8.233489 19.777689 0
-29.666010 -7.186288 21.422310 0
-27.168846 -3.567143 28.377340 0
-26.272409 -2.121656 30.059704 0
-24.615545 -0.928727 30.524725 0
-13.857593 -0.150106 29.232410 0
-19.420258 7.872542 32.481590 0
-20.563522 12.582996 32.505676 0
-19.613157 46.776699 5.417824 0
-19.771465 49.399864 1.235177 0
-21.426281 48.756115 -2.714556 0
-21.508284 47.188103 -6.480314 0
-11.468535 33.171360 -6.229179 0
-11.000962 30.876375 -5.615000 0
-10.911725 28.200611 -5.110650 0
-9.607574 9.445638 -9.045439 0
-9.456601 3.082558 -11.792217 0
-9.346522 -1.865828 -11.594694 0
-14.676203 -7.538409 -8.713167 0
-20.045971 -14.310281 -7.129945 0
-20.017857 -16.683949 -5.422060 0
-20.895500 -20.784386 4.878642 0
-30.456120 -19.467039 12.756891 0
-32.442535 -10.027770 17.959616 0
-29.285463 -5.167752 22.119049 0
-15.547585 3.134390 29.158361 0
-15.986691 22.038952 29.838005 0
-15.032345 24.954222 29.219231 0
-14.337532 29.828650 23.798561 0
-13.964740 32.200775 22.194380 0
-14.879385 36.092407 16.099289 0
-20.703308 47.281250 2.317878 0
-19.829849 43.654396 -7.854127 0
-18.471725 41.446545 -8.169074 0
-15.033920 37.064201 -8.195935 0
-9.480374 0.601990 -12.741591 0
-10.393233 -3.943808 -11.428139 0
-15.551625 -9.514136 -8.108666 0
-18.340321 -19.678661 -1.926437 0
-18.791300 -20.659809 0.392843 0
-19.046812 -20.672752 2.990909 0
-31.819490 -18.696325 15.028986 0
-28.845932 -3.365172 23.895615 0
-28.508223 -2.345600 25.654373 0
-15.823730 -0.026092 27.530109 0
-14.135197 1.354301 29.320282 0
-19.322515 6.826259 30.375233 0
-22.050613 11.972455 30.974724 0
-17.331087 19.791784 30.315674 0
-15.015442 26.740578 26.478943 0
-15.874565 35.515949 14.110336 0
-20.128483 44.306828 6.963768 0
-22.234064 46.373993 -3.110409 0
-21.708477 44.715500 -5.968568 0
-13.664839 33.438282 -7.655222 0
-12.720802 30.107571 -6.659815 0
-11.035811 21.596180 -3.374135 0
-9.357224 19.535175 -3.391255 0
-9.057690 13.851227 -4.570463 0
-9.184473 8.510119 -6.632279 0
-9.393474 6.183608 -9.473203 0
-12.629987 -7.204815 -8.774796 0
-17.213472 -11.343908 -7.958659 0
-17.576311 -15.815978 -5.890864 0
-17.294022 -17.755024 -4.179521 0
-21.437502 -19.490267 5.885605 0
-24.004406 -18.743362 7.018165 0
-32.711067 -16.753935 15.986171 0
-33.349392 -13.534773 17.185078 0
-28.109863 -1.366151 26.896555 0
-23.271532 0.111395 29.061609 0
-18.998886 -0.178776 28.027332 0
-18.224964 0.650222 26.133190 0
-16.933760 4.443011 29.195303 0
-17.594978 5.136008 30.678473 0
-21.238012 15.794358 30.108580 0
-13.915977 33.616974 20.110626 0
-14.099681 33.348991 18.270119 0
-14.255106 34.967606 17.240618 0
-22.253195 45.575359 0.358886 0
-17.573847 38.949982 -8.412321 0
-12.131790 24.434755 -4.669691 0
-9.460738 15.497863 -2.969748 0
-9.100504 10.512802 -4.832425 0
-8.763278 2.970195 -8.436346 0
-8.700828 0.319186 -9.985260 0
-8.835564 -4.033043 -9.803399 0
-9.578127 -6.105397 -8.797983 0
-10.602349 -7.646592 -7.885603 0
-11.991612 -9.724260 -6.965631 0
-14.174641 -11.386404 -7.122561 0
-15.786458 -18.942722 -2.723909 0
-18.608446 -18.785637 4.463575 0
-28.616529 -19.804388 10.614087 0
-27.047794 -18.119900 8.470034 0
-29.767450 -0.200072 23.124886 0
-25.865553 0.080011 28.472651 0
-21.226505 8.877491 29.435431 0
-22.351360 10.721417 29.780005 0
-21.809631 13.868704 30.774967 0
-14.371228 30.499273 20.110645 0
-14.986636 33.368420 15.649572 0
-20.063667 42.271660 8.400507 0
-21.518997 44.990463 3.590045 0
-21.011940 42.091595 -6.927232 0
-15.431642 33.918236 -8.854455 0
-16.867548 35.021969 -9.370980 0
-13.424228 26.786341 -6.358174 0
-8.135600 -2.479650 -8.473034 0
-8.269705 -5.505600 -7.702754 0
-14.992528 -13.242455 -6.654922 0
-17.471327 -13.679831 -7.085243 0
-29.720715 -17.621599 10.465191 0
-31.729582 -17.129961 13.004686 0
-33.336906 -14.247186 15.763002 0
-33.290131 -11.180182 15.171527 0
-27.998960 0.335385 26.307535 0
-21.761999 0.407489 28.113602 0
-20.752237 0.974263 26.363998 0
-18.095701 5.234842 26.539072 0
-18.493330 5.782784 28.698452 0
-20.737043 17.482935 29.012497 0
-19.625675 18.983622 28.240568 0
-17.756058 21.175686 27.695255 0
-14.934340 27.408056 23.936335 0
-15.070467 27.852579 21.658920 0
-17.981009 39.620483 11.673524 0
-23.423513 43.379749 -1.390836 0
-22.698889 42.378517 -5.225193 0
-20.601355 39.490639 -7.728043 0
-18.525751 36.316383 -9.151256 0
-14.220991 30.780094 -7.976553 0
-10.784545 17.234655 -2.255619 0
-9.422746 11.002128 -2.699625 0
-8.882522 5.454757 -6.540529 0
-8.695323 -8.389883 -5.406883 0
-14.435480 -15.493058 -5.117212 0
-15.700891 -19.694820 -1.567725 0
-16.034803 -20.049805 -0.193662 0
-16.671944 -20.234356 1.654093 0
-16.171629 -18.758923 3.061319 0
-31.318518 -15.973469 10.799756 0
-32.978703 -15.202673 13.991413 0
-32.176132 -7.485381 17.201023 0
-31.342577 -5.049665 18.299927 0
-30.116844 -1.884580 21.593390 0
-16.813511 1.333737 25.363081 0
-15.602130 1.813801 26.468006 0
-16.030563 3.230817 26.957224 0
-20.097631 7.191529 27.676989 0
-23.421688 12.649855 28.591614 0
-23.332340 14.465890 28.400660 0
-16.575157 23.626764 26.262012 0
-17.388548 36.924976 12.274687 0
-20.093002 39.845409 8.883866 0
-21.476158 41.607319 6.636501 0
-22.084034 42.985882 4.689878 0
-23.213644 42.767807 1.791479 0
-23.096575 43.586006 -3.717278 0
-22.404036 40.654404 -6.040418 0
-19.786469 37.782173 -8.572717 0
-18.711378 33.525845 -10.268121 0
-17.001659 32.732353 -9.894713 0
-15.970991 30.838181 -9.197837 0
-15.081230 28.356682 -8.121824 0
-14.560910 23.766117 -6.036262 0
-12.396558 18.608395 -2.688369 0
-10.718701 12.872053 -1.487215 0
-8.058904 0.114037 -6.903062 0
-7.703876 -5.065173 -6.169351 0
-10.298567 -11.507812 -5.217730 0
-12.424047 -12.952884 -5.716095 0
-14.495622 -17.699230 -3.556746 0
-20.545286 -17.154795 5.326622 0
-28.581255 -16.328182 8.451171 0
-30.177748 -14.864992 8.733323 0
-32.649326 -14.726084 12.034772 0
-33.047485 -8.444929 14.565730 0
-30.043692 -3.165728 21.051529 0
-26.627028 1.529935 26.370506 0
-24.929371 1.332548 27.050491 0
-23.282907 1.554501 26.231476 0
-18.415668 2.083284 23.932558 0
-22.288900 16.742950 28.055155 0
-22.456602 17.793390 26.145216 0
-19.338030 20.282480 26.440987 0
-16.022421 25.457209 23.651348 0
-14.693820 31.469667 17.120691 0
-16.317041 32.927391 13.644381 0
-17.136732 34.315514 12.414098 0
-18.344807 30.637501 -10.469028 0
-13.812715 20.643173 -4.175832 0
-8.971198 6.718441 -3.575000 0
-8.325933 2.797914 -5.257620 0
-7.555516 -2.618895 -5.774848 0
-13.488559 -18.631865 -1.344289 0
-14.273604 -19.102634 1.111048 0
-23.526585 -15.411889 5.604889 0
-25.505058 -16.670393 6.913589 0
-27.434637 -14.265014 6.545284 0
-31.993647 -14.163606 10.131677 0
-33.356438 -12.570787 13.175544 0
-30.913153 -2.759230 19.496504 0
-29.522705 1.923123 23.162010 0
-23.053581 2.660617 23.723146 0
-20.332169 2.213043 23.786623 0
-17.642408 4.289308 24.649542 0
-22.029915 8.856722 26.175081 0
-23.349434 10.894097 27.083563 0
-21.005941 19.590631 25.182093 0
-19.498756 37.053703 9.682743 0
-22.143312 39.448414 6.258299 0
-23.099995 40.784603 4.124188 0
-22.617117 38.848186 -6.658190 0
-21.967928 36.078983 -8.468431 0
-7.694235 -0.743384 -3.755197 0
-7.387260 -5.102138 -3.894392 0
-8.909292 -11.817509 -3.752458 0
-12.550160 -16.796566 -3.265004 0
-16.555887 -15.845969 3.910124 0
-20.121433 -14.543998 4.474747 0
-32.658131 -5.808918 15.262512 0
-25.734327 2.684959 24.515265 0
-17.621979 3.141711 23.789442 0
-20.434107 7.193029 25.288914 0
-23.720417 15.862506 26.639757 0
-18.936455 21.656401 24.657200 0
-15.639109 27.963396 19.015654 0
-15.329083 29.642361 17.330723 0
-16.419487 30.703447 14.724886 0
-21.804461 37.155891 6.706554 0
-24.195425 39.661777 1.728903 0
-24.225470 40.986210 -0.553945 0
-23.974255 40.336845 -3.646712 0
-20.477726 34.423977 -9.931821 0
-17.798088 27.594217 -9.712096 0
-16.163864 25.428383 -7.948393 0
-15.494933 21.640816 -5.762705 0
-12.680818 15.156457 -1.808227 0
-10.129334 7.893083 -1.048474 0
-10.884130 -14.497432 -3.728214 0
-13.674744 -17.260035 2.526065 0
-31.975056 -12.174728 9.188721 0
-32.955723 -12.436305 11.056921 0
-27.849726 2.239725 24.711155 0
-22.005259 3.182854 22.252346 0
-19.714838 3.756772 22.048527 0
-19.843824 6.334970 23.589260 0
-23.106365 18.710201 23.717089 0
-16.625139 25.751413 20.699850 0
-18.416008 31.651054 11.821019 0
-18.512802 34.675251 10.860659 0
-23.479364 38.132515 4.041469 0
-23.650875 37.757992 -6.315400 0
-20.621778 31.650328 -10.776200 0
-17.381599 22.028517 -7.342951 0
-14.170528 16.842575 -2.845990 0
-8.324991 2.822525 -2.933017 0
-7.275558 -3.477106 -2.322506 0
-7.397180 -7.861340 -2.708638 0
-7.821421 -10.503631 -2.397059 0
-8.696851 -13.335824 -1.880662 0
-11.218229 -16.956690 -1.679508 0
-12.084785 -17.837368 0.500719 0
-30.243168 -12.830327 7.471381 0
-28.369921 3.458082 22.675074 0
-25.257812 3.493410 22.851809 0
-24.788345 13.835279 25.422047 0
-17.984509 23.613930 22.412201 0
-17.024628 28.192606 16.131979 0
-20.144257 33.571838 9.058402 0
-20.903902 35.478188 7.911264 0
-24.868040 38.414822 -0.988309 0
-22.349167 33.150860 -9.736355 0
-18.764608 24.111883 -9.161349 0
-16.467579 19.709761 -5.576346 0
-9.177276 4.028601 -1.042063 0
-7.839457 -2.142007 -0.878842 0
-7.353622 -5.737991 -1.004055 0
-9.656129 -15.389408 -1.560869 0
-25.555170 -12.642178 4.886580 0
-22.954109 -12.644116 4.249863 0
-33.078434 -9.397503 11.145759 0
-32.103096 -2.103810 17.048164 0
-27.141256 4.152459 21.765055 0
-21.565830 4.110416 20.976685 0
-19.584925 5.265992 22.140377 0
-22.284216 8.501366 23.033129 0
-23.769543 10.314723 24.236647 0
-24.671402 11.878514 24.827168 0
-25.055431 16.725376 23.377707 0
-21.671160 20.587969 22.432451 0
-19.799841 21.988655 22.317425 0
-22.226337 34.107639 6.115160 0
-24.578621 36.768494 1.459687 0
-24.962854 38.148968 -3.254592 0
-24.742046 36.984241 -5.131702 0
-23.875320 35.593334 -7.390576 0
-20.178009 28.556684 -10.898286 0
-16.026718 17.204552 -4.171672 0
-12.851976 12.428376 -1.083864 0
-11.670602 10.063770 -0.490479 0
-8.248881 0.758835 -1.394232 0
-7.522018 -9.112655 -0.406790 0
-10.237605 -16.516060 -0.014340 0
-18.114161 -12.200499 3.652060 0
-20.653372 -11.760447 3.669113 0
-29.657032 -11.308739 6.156928 0
-31.692717 -10.246902 7.822961 0
-31.596663 0.192318 18.948957 0
-25.312199 4.269434 21.089966 0
-23.550606 4.180775 20.808552 0
-21.835115 6.011538 19.790756 0
-24.247471 19.335472 21.368019 0
-17.330215 26.389385 18.013298 0
-18.736042 28.724659 13.619924 0
-23.572327 35.515999 3.763555 0
-25.310509 36.175720 -3.138073 0
-23.159307 30.518610 -10.172448 0
-20.756166 25.555208 -10.415032 0
-15.385427 12.861093 -2.147455 0
-9.355720 0.222916 0.562366 0
-8.001248 -7.184105 0.912103 0
-8.195152 -11.980765 0.036420 0
-11.000378 -15.988395 1.660226 0
-12.632026 -14.842341 2.978112 0
-25.183231 -9.697666 3.515311 0
-28.000605 -10.332203 4.744661 0
-33.278816 -6.006046 12.328989 0
-32.958466 -3.135165 14.343456 0
-31.212801 2.133045 19.987164 0
-25.662374 12.494446 22.287800 0
-20.798714 22.554882 19.983721 0
-20.516302 31.063442 9.523717 0
-24.407251 32.263927 -8.041261 0
-21.779352 29.536289 -11.111088 0
-19.931131 20.760206 -8.325598 0
-21.342789 22.273867 -9.580745 0
-10.802138 4.061980 0.497492 0
-8.481193 -3.882724 0.866320 0
-8.898504 -10.120586 1.678793 0
-9.128005 -14.578638 0.246159 0
-13.763595 -12.786958 3.465341 0
-30.220421 3.527366 20.924116 0
-29.358685 4.737831 19.903118 0
-25.626499 5.424510 18.835798 0
-23.542004 5.495127 18.954031 0
-21.756639 7.362819 21.000813 0
-23.970150 9.400970 19.924322 0
-24.355057 10.386078 21.837685 0
-26.217258 14.541280 22.283848 0
-23.311979 21.010202 19.793478 0
-18.723547 24.543875 19.109335 0
-19.376719 26.226089 15.771004 0
-20.555214 29.120089 11.094581 0
-21.986235 31.615335 7.249396 0
-24.926897 33.490734 0.642469 0
-25.206232 35.729954 -0.871425 0
-24.747551 34.799820 -6.709723 0
-22.931513 27.166439 -10.627012 0
-18.957611 18.165209 -6.514792 0
-13.675878 10.020969 -0.575472 0
-9.846992 -13.386493 1.856571 0
-15.881585 -13.107366 3.719527 0
-22.608168 -9.950227 3.231215 0
-32.376083 -0.453253 17.011370 0
-27.653532 5.209150 19.407738 0
-25.747536 18.527069 20.747063 0
-20.801889 24.005280 17.474831 0
-21.535900 26.776939 12.747875 0
-22.562916 29.243086 8.292939 0
-23.295166 31.804193 4.975416 0
-23.821999 33.213524 3.439658 0
-25.434698 33.922859 -2.766492 0
-17.517332 15.111738 -4.311852 0
-12.392243 7.136496 0.156633 0
-11.702947 0.898989 1.547261 0
-10.424118 -2.499683 1.895860 0
-9.582489 -6.380085 2.154768 0
-10.609875 -9.138677 2.771114 0
-31.392975 4.265425 18.112137 0
-25.503832 6.638630 17.076536 0
-23.750233 8.247090 18.319407 0
-25.857193 11.688546 19.861725 0
-25.227816 34.264580 -5.319466 0
-25.022547 28.696157 -9.036247 0
-23.497679 23.157520 -10.008891 0
-13.399508 4.222576 0.890767 0
-11.256254 -11.818201 2.873812 0
-27.346655 -8.154111 3.451730 0
-32.402458 -7.814818 7.819461 0
-33.174782 0.205358 14.900168 0
-32.906967 2.766613 15.883128 0
-26.989079 6.761591 16.665644 0
-24.472256 7.306219 17.212013 0
-25.972107 10.299511 16.664019 0
-27.082893 15.914629 20.406471 0
-26.894743 17.699574 19.833569 0
-25.955555 20.254372 18.009619 0
-23.347092 22.490370 17.417881 0
-22.988806 27.504589 9.909419 0
-24.769051 30.881641 2.590660 0
-11.674309 -4.460390 2.579889 0
-11.768406 -6.939557 2.898505 0
-13.192817 -9.163147 3.164312 0
-15.536281 -10.599058 3.410105 0
-30.646492 -8.375610 5.645055 0
-33.183617 -5.882203 9.225728 0
-30.138687 6.008528 17.020704 0
-27.866226 6.102383 17.605173 0
-25.643982 10.813132 18.395678 0
-27.445713 14.095617 18.765369 0
-21.967106 24.758821 15.231837 0
-23.962147 29.604458 5.624359 0
-25.857944 30.406750 -0.576707 0
-25.610510 32.067570 -2.297350 0
-25.587740 31.910337 -5.297628 0
-22.907499 18.377415 -8.230540 0
-18.128309 12.214539 -3.397694 0
-15.322020 7.655333 -0.404759 0
-17.377903 9.640455 -1.888402 0
-14.363207 1.177379 1.555307 0
-13.368934 -1.752619 2.157044 0
-14.216915 -4.827264 2.629352 0
-17.746000 -9.049114 3.076730 0
-20.391157 -8.702483 2.855697 0
-29.396324 -6.251681 3.792106 0
-33.641743 -3.138398 10.743132 0
-32.472282 5.251262 15.397307 0
-25.997923 9.082072 15.788147 0
-25.193449 27.106609 7.063931 0
-25.077698 25.763845 -9.810424 0
-21.067625 16.091650 -6.754782 0
-19.626287 14.612000 -5.377663 0
-33.832809 -0.697363 12.025664 0
-28.697521 7.142681 15.897676 0
-27.006252 12.225493 17.316534 0
-28.355324 16.646276 17.330482 0
-27.646658 18.517714 17.833389 0
-26.120832 30.321346 -3.707892 0
-26.381351 28.931934 -6.222868 0
-20.102217 12.194030 -4.499421 0
-16.152496 3.698802 0.565919 0
-17.140902 -0.630493 1.440035 0
-15.819162 -7.407278 2.936408 0
-23.594168 -7.035051 2.417011 0
-32.013512 -5.132505 5.835080 0
-31.576868 6.972408 14.620674 0
-27.731195 8.481193 14.769459 0
-28.433817 19.062840 15.661307 0
-25.837667 22.197495 15.504518 0
-24.163235 23.649532 14.932620 0
-25.753611 28.174150 3.751830 0
-25.845156 29.213276 1.457867 0
-26.339563 23.275108 -9.278881 0
-18.434963 6.383539 -1.057644 0
-16.661709 -4.438450 2.367901 0
-26.333155 -6.091736 2.483728 0
-34.286762 2.163315 11.753068 0
-33.062782 6.687726 13.185655 0
-30.075523 7.977310 14.268632 0
-27.872986 12.131493 14.890635 0
-28.375160 13.649771 15.594013 0
-27.845173 20.887604 14.666762 0
-23.651445 25.107414 13.035065 0
-27.008387 25.984402 -7.832253 0
-25.208038 20.559456 -9.257157 0
-18.953804 -5.844290 2.342928 0
-21.768911 -5.259224 1.943290 0
-33.425003 -3.163863 7.786760 0
-34.113888 4.861573 12.444888 0
-28.325071 10.883790 13.609571 0
-27.295856 22.610456 13.101987 0
-25.024107 25.623838 10.228316 0
-22.259527 12.876901 -5.693469 0
-20.284651 9.534645 -3.200134 0
-18.633633 2.839889 0.155862 0
-24.681334 -3.150810 1.289218 0
-28.087017 -3.466193 2.002793 0
-34.197598 -0.257985 8.585690 0
-31.959833 8.335199 12.362916 0
-29.642639 13.892035 12.357740 0
-29.177397 15.468729 14.760506 0
-29.489922 17.571844 14.073256 0
-25.732670 23.943607 12.745408 0
-27.406960 25.915810 4.230908 0
-27.077253 27.584959 0.363374 0
-27.473125 20.262747 -8.633399 0
-31.021090 -3.073842 3.453631 0
-30.327896 9.875048 12.060131 0
-29.522614 19.667933 12.199485 0
-26.866453 28.542900 -2.759487 0
-28.326361 23.629112 -7.458377 0
-26.592026 17.948236 -8.090326 0
-23.908932 15.068176 -7.248416 0
-21.589888 6.722514 -2.257122 0
-21.022631 4.342628 -1.021096 0
-21.281525 1.440037 -0.009441 0
-18.538111 -3.134968 1.849472 0
-21.214760 -1.988422 1.132263 0
-33.149616 -1.559409 5.354211 0
-34.995033 2.267685 8.261551 0
-33.769447 7.561855 10.973294 0
-27.480892 23.625496 10.287248 0
-28.262936 22.036570 -8.358688 0
-26.169735 15.153110 -7.215692 0
-29.931103 -1.210890 1.602495 0
-35.302639 4.624948 8.975789 0
-34.943375 6.582332 9.608277 0
-30.451717 16.768291 10.816545 0
-28.697353 21.781940 11.603904 0
-27.566929 24.573982 7.295510 0
-28.053799 26.049400 1.622834 0
-28.200588 26.254971 -3.037301 0
-34.434334 8.622473 8.361027 0
-32.693790 9.565007 9.934349 0
-30.258579 12.172547 11.051378 0
-30.322254 19.405699 9.795674 0
-28.982336 24.630945 2.008775 0
-28.610826 25.611961 -0.313819 0
-27.902458 26.309929 -5.633377 0
-24.684021 13.057897 -6.463663 0
-23.337372 8.727196 -3.784209 0
-24.628843 4.845086 -1.978930 0
-24.488083 0.713190 -0.175610 0
-27.355434 -0.464625 0.435745 0
-32.357956 0.043910 2.615001 0
-34.477886 1.465977 5.044096 0
-35.574577 3.685608 6.250772 0
-31.859558 11.587879 9.127203 0
-29.509089 21.835022 8.220239 0
-29.578848 23.014784 4.108633 0
-29.878494 23.362787 -0.487850 0
-29.336554 23.662340 -4.562285 0
-29.452211 18.250740 -6.586535 0
-28.669733 15.621680 -6.551685 0
-24.602146 10.759775 -5.219546 0
-30.156630 1.113337 0.362983 0
-35.517738 7.270400 6.749806 0
-29.560650 21.485796 -6.471526 0
-28.991329 20.430460 -7.775955 0
-26.460793 11.893411 -5.855717 0
-31.394354 14.297409 8.663852 0
-30.979548 18.934755 7.499736 0
-26.553444 8.658006 -4.067379 0
-33.786304 1.908417 2.409489 0
-32.558701 2.792300 0.461414 0
-35.900894 5.860958 5.516721 0
-33.602180 10.648860 7.185369 0
-34.918900 9.352798 5.809212 0
-31.643742 16.553986 7.088343 0
-30.816216 20.629234 5.070211 0
-28.633484 12.442356 -5.440786 0
-27.775686 3.029611 -1.159324 0
-34.606182 3.755413 1.972623 0
-35.543568 4.368005 3.725383 0
-35.336189 8.464988 3.161776 0
-31.218018 20.380617 1.449592 0
-30.805140 21.315979 -2.181946 0
-31.003592 14.881282 -4.341374 0
-28.489950 6.357675 -2.687406 0
-30.572058 3.074507 -0.752695 0
-32.816620 12.763100 6.494830 0
-35.859833 6.365057 3.230360 0
-35.073444 9.841664 4.292516 0
-32.768223 14.820607 4.349107 0
-30.605576 20.230352 -4.500287 0
-31.006895 17.725534 -4.564067 0
-29.343664 9.348554 -4.024531 0
-31.185354 5.300670 -1.551826 0
-34.105286 11.639421 4.178059 0
-31.874922 18.061531 4.195302 0
-31.546143 19.881060 -0.987796 0
-30.860701 11.485434 -4.150468 0
-33.652210 5.032670 -0.092868 0
-34.961868 6.724041 1.129070 0
-31.817862 17.737179 -1.978422 0
-32.410027 16.985497 1.159936 0
-31.656433 8.603399 -2.586059 0
-33.416874 7.231128 -1.036248 0
-33.931664 10.054073 -0.394759 0
