#!ascii version written be Caret
6056 12108
-20.977316 55.843899 -5.264562 0
-12.004635 60.325123 -1.586530 0
-16.347427 58.562080 -3.928805 0
-14.424103 58.525703 -2.224225 0
-24.691242 50.600464 -0.014138 0
-22.811878 52.749672 -1.438169 0
-25.953135 49.763889 -3.238036 0
-18.311836 42.427364 -4.380821 0
-2.851528 45.504017 -8.301296 0
-25.053793 36.917950 -4.060718 0
-3.483953 38.589996 -8.510469 0
-28.503656 32.502495 -2.826866 0
-27.978586 33.951645 -3.459784 0
-10.197403 34.136818 -6.252981 0
-27.382603 29.565569 -1.560174 0
-27.858812 23.588249 -2.144823 0
-33.632935 16.812485 -0.855993 0
-9.212261 15.137452 -6.719803 0
30.884552 16.902176 -3.652697 0
-13.201634 18.251276 -5.656362 0
-13.376420 14.711971 -4.765232 0
30.773081 21.405867 -1.686103 0
-8.893086 11.371178 -5.904298 0
-12.094528 -4.431378 -8.738814 0
-29.440130 -11.668653 -6.506266 0
-25.714029 -4.606807 -2.022253 0
-27.881964 -4.556401 -1.178717 0
-26.044460 -0.978279 -1.426473 0
-26.943621 -7.123417 -1.144884 0
-24.195372 -7.334792 -1.504635 0
-23.225409 -4.155725 -2.149288 0
-20.245266 -4.123322 -1.963507 0
-21.627422 -1.603302 -1.985116 0
-20.994583 -7.166346 -1.594917 0
-22.555326 -9.900347 -0.370393 0
-25.856443 -10.040824 0.434464 0
-34.128395 -11.530374 -7.860296 0
-23.825762 -13.451035 -5.702524 0
-21.262022 -13.789475 -5.693497 0
-19.331444 -15.509364 -4.279558 0
-34.179443 -15.729326 -7.161357 0
-14.552813 -14.533148 -3.595949 0
-12.854462 -12.284505 -2.798314 0
-17.240372 -16.517389 -2.524669 0
-33.974976 -18.641153 -8.081775 0
-34.707096 -22.507362 -5.274802 0
-31.134604 -29.672981 -4.902151 0
23.790163 -23.288408 -5.697739 0
-29.991966 -28.315001 -6.483392 0
-33.862583 -28.829514 -2.566702 0
-32.828762 -31.210670 -1.397912 0
25.381554 -40.137814 -2.641398 0
26.369688 -36.086552 -2.738957 0
-27.096863 -40.521637 -4.390248 0
-19.173874 -53.025440 -4.938711 0
-17.803158 -54.215603 -5.818842 0
21.012503 -56.519196 -6.793545 0
22.215107 -59.360737 -7.427356 0
24.572191 -58.707047 -5.526038 0
-4.435647 -68.600304 -5.703977 0
-6.260384 -67.483826 -4.730656 0
-2.380961 -70.116150 -5.479205 0
21.277452 -61.213787 -8.907030 0
30.089108 -65.149483 -3.031632 0
-1.169244 -73.349335 -9.674104 0
31.013741 -73.650383 -4.890381 0
31.120878 -70.679825 -4.592948 0
30.879938 -71.542938 -2.949011 0
30.663296 -68.610191 -2.472086 0
0.433740 -72.991524 -8.211896 0
0.955621 -72.159988 -6.140234 0
3.644368 -74.538933 -7.725505 0
1.251883 -74.661942 -9.340163 0
4.825589 -73.673134 -5.323952 0
6.459189 -74.780602 -6.216524 0
3.106855 -76.524132 -10.173131 0
30.910292 -75.752472 -7.303960 0
10.852007 -77.626228 -6.232920 0
12.765820 -78.652412 -5.219535 0
21.404232 -82.547989 -6.412660 0
19.654629 -82.349747 -6.000858 0
24.369898 84.880424 -2.114175 0
-5.544044 75.886581 -3.260009 0
-2.921896 75.353409 -2.236381 0
-10.522738 66.185699 -1.617702 0
-10.817747 68.703926 -1.276993 0
25.685396 67.193733 -2.098847 0
26.714153 64.994270 -1.933645 0
-18.870573 57.190037 -4.514171 0
29.325769 48.307865 -4.836252 0
-26.477234 48.249599 -1.279846 0
-5.283165 42.891663 -6.683320 0
-8.982806 41.275192 -5.758597 0
-20.089014 40.277592 -3.496586 0
-14.567092 41.145309 -4.926213 0
-12.674545 39.321247 -5.343010 0
-10.655690 38.605473 -5.501319 0
-27.219341 35.544270 -2.425349 0
-26.882116 25.457106 -1.474939 0
-25.748238 27.953312 0.529009 0
-10.061725 27.982201 -6.639377 0
-9.290955 22.345390 -7.988833 0
-31.820520 18.519434 -0.726509 0
-10.387363 19.065130 -6.416222 0
-34.518360 15.463633 -1.776833 0
-22.547857 12.144796 -5.029451 0
30.680256 12.662936 -5.876341 0
-18.124334 9.938981 -3.208495 0
-28.442083 -3.082415 -0.217102 0
-29.434944 -6.867663 0.242947 0
26.120169 -10.161174 -3.776336 0
27.130030 -8.157688 1.356112 0
26.136250 -12.929255 0.938493 0
25.073416 -14.799144 -3.717990 0
-15.479137 -15.944529 -1.458430 0
-20.199152 -17.892223 -1.682009 0
24.562235 -19.707411 -3.309089 0
-34.392166 -19.448004 -5.913412 0
25.196030 -31.568203 -4.933899 0
-32.269775 -30.836407 -3.264927 0
-31.168165 -32.148125 -1.273787 0
-28.331472 -35.114334 -2.523684 0
-17.689587 -53.696102 -3.386877 0
19.371986 -47.356670 -4.718666 0
-23.192505 -49.844444 -5.587273 0
-22.175287 -50.991688 -3.996917 0
-16.754234 -55.919811 -5.938019 0
19.342033 -50.035286 -5.223889 0
19.971922 -52.344398 -5.522925 0
23.472477 -56.556240 -4.919817 0
26.043636 -56.974380 -2.318947 0
23.412653 -61.595337 -8.035563 0
26.946161 -59.570240 -4.029263 0
28.920515 -61.830017 -2.656825 0
3.650036 -72.936363 -3.573070 0
6.433816 -76.832352 -8.691835 0
6.453534 -75.584587 -7.291743 0
8.740767 -76.283112 -6.195332 0
10.196688 -76.317650 -3.170681 0
15.399286 -80.442062 -5.752287 0
14.278408 -79.445419 -3.601889 0
17.686640 -81.435272 -4.916967 0
21.159479 87.392281 -0.366439 0
23.988827 85.946045 -0.755060 0
22.994320 87.012871 -0.952486 0
8.649820 85.176727 -1.698527 0
11.157269 86.373955 -1.944162 0
9.811992 85.223015 -0.230382 0
14.675145 86.920311 -0.165501 0
13.090357 87.008202 -1.812924 0
12.272408 85.890808 0.825784 0
24.386129 79.796738 -2.118149 0
24.849781 80.579460 0.062407 0
-10.307361 70.719910 -1.684563 0
-9.684173 72.151932 -0.174794 0
-11.630146 67.599556 0.206629 0
-11.126827 70.016449 0.319112 0
23.390276 70.229034 2.317341 0
23.684488 66.374893 3.764107 0
24.525549 66.948845 0.760566 0
28.299051 55.419624 -1.342414 0
-17.417063 56.194523 -1.441869 0
-13.912914 57.380867 0.174562 0
-24.111689 44.349728 -2.364866 0
-6.251967 39.230423 -5.747163 0
-4.000122 39.996811 -6.636084 0
-26.572369 37.444679 -1.020019 0
-5.170138 36.377022 -6.645381 0
-27.685593 33.816135 0.761454 0
-25.969637 31.379673 2.410793 0
-27.860491 31.518351 -0.902565 0
-12.262447 21.066942 -6.006133 0
-25.311216 10.485014 -4.352747 0
-27.327717 7.962152 -3.192502 0
-15.242071 11.907051 -3.713528 0
-10.365783 13.376916 -4.795623 0
-9.298038 7.826575 -4.252927 0
-31.142965 11.692779 -4.097156 0
-33.385746 10.470268 -1.739172 0
-27.109486 3.592337 -1.920320 0
-29.690718 4.780358 -1.291443 0
-23.780521 5.078690 -2.420659 0
-28.798103 0.880799 0.482004 0
-30.874357 2.379223 1.570280 0
-25.014715 2.240509 -2.197258 0
-33.231876 4.626437 1.207988 0
-32.113369 5.356045 -0.349584 0
-8.263288 1.201695 -5.084978 0
28.281954 -1.922700 -5.932485 0
-29.914577 -5.054417 1.219293 0
-29.176958 -2.480415 2.251970 0
-32.508724 -13.904492 -6.080865 0
-19.701094 -10.002366 -0.556938 0
-26.777349 -14.615226 -4.805320 0
-23.358093 -16.711153 -3.379819 0
-34.098743 -22.081081 -4.232590 0
24.779976 -26.398918 -3.470371 0
-29.960552 -31.766817 -2.982669 0
-19.866215 -41.765381 -3.056659 0
-21.999931 -41.108673 -3.711725 0
-19.875502 -43.663868 -4.381336 0
-28.570316 -39.483532 -4.013033 0
-20.733587 -45.539810 -3.569463 0
-16.701094 -54.219234 -3.492040 0
-16.202797 -55.009720 -3.889606 0
-15.332727 -56.289864 -3.079041 0
-16.635147 -58.323891 -6.835842 0
21.429815 -54.341675 -5.228296 0
27.930115 -59.280556 -2.294672 0
-4.622657 -68.055984 -3.649035 0
-13.850654 -65.824951 -7.486421 0
-0.139862 -71.323013 -3.262365 0
30.082729 -78.114967 -6.670356 0
30.103861 -76.415276 -4.234934 0
22.474869 -81.801636 -3.865000 0
23.105028 85.987320 1.925519 0
7.795290 83.251122 0.865823 0
10.113451 84.827896 1.197355 0
24.685730 83.639397 1.070297 0
5.576161 81.019119 -1.310730 0
5.017882 79.125656 -0.102958 0
6.246879 80.960121 1.679853 0
4.105668 76.691833 0.351533 0
-11.996928 68.743004 2.013911 0
23.575705 67.175034 6.184940 0
26.904623 62.509300 1.139187 0
28.904451 48.107079 -0.704237 0
28.490189 51.667309 0.107697 0
-20.076189 54.191650 -0.413994 0
-21.642817 52.481476 1.517080 0
-26.186266 48.276409 0.947379 0
-26.678749 46.641529 -1.909837 0
-21.989565 42.609879 -2.476578 0
30.265902 40.909088 -6.489813 0
-24.260805 39.183659 -1.710448 0
-9.057714 37.407753 -5.620389 0
-25.468561 25.596582 1.300797 0
-26.015368 23.301989 3.433370 0
-13.231278 23.559345 -6.551950 0
-28.514845 20.371328 1.924031 0
-27.931509 21.995594 0.026361 0
-34.877647 13.826296 0.774858 0
30.353779 11.910439 -0.429510 0
-30.186380 10.114382 -3.597886 0
-22.546972 8.491375 -3.129309 0
-21.092884 10.252604 -3.678438 0
-31.373390 7.808543 -1.912943 0
-22.719109 1.241906 -2.069485 0
-20.224771 2.606613 -1.736390 0
-19.158300 0.220603 -1.603635 0
-34.026436 7.552670 0.494352 0
-32.722843 3.081188 2.579741 0
-17.259687 -2.455489 -1.300861 0
-18.414490 -5.694779 -1.535580 0
-28.294748 -8.812947 0.209914 0
-17.672575 -8.433413 -1.013954 0
-30.882298 -13.794667 -5.439404 0
25.197824 -24.068979 -0.903029 0
-33.466988 -27.675438 -0.917122 0
-33.382275 -30.458488 -0.250467 0
-28.506678 -37.907780 -2.535948 0
27.179689 -37.965073 -0.451665 0
-23.438423 -41.576717 -1.910057 0
-18.881351 -43.183678 -2.205096 0
-22.094021 -46.301342 -5.421804 0
20.187414 -45.643642 -3.594710 0
21.569998 -44.513512 -1.803429 0
22.595467 -42.661583 -4.085433 0
-21.779579 -47.697433 -2.724084 0
20.277405 -46.788532 -1.098793 0
-18.891705 -53.209988 -2.183581 0
-20.818842 -52.195850 -3.200804 0
20.291109 -48.910599 -1.737575 0
-15.723053 -57.262856 -4.831878 0
-20.165676 -52.485325 -0.330513 0
23.808958 -55.413658 -3.731910 0
-6.841043 -66.319160 -1.299044 0
-3.902720 -68.781120 -1.673806 0
-8.508270 -66.601387 -4.136523 0
-13.534134 -63.725754 -4.340173 0
-2.618795 -70.788399 -0.293209 0
7.341690 -74.476852 -2.751418 0
-12.298652 -66.165955 -6.032140 0
7.914099 -74.964523 -4.626616 0
15.565989 -79.810753 -1.482029 0
13.412325 -78.481735 -1.545814 0
27.239212 -80.773285 -5.519931 0
24.918465 -81.616547 -5.067937 0
18.395971 87.337563 0.572042 0
-5.682582 75.210640 -1.285510 0
-10.753268 70.447952 2.769085 0
-8.239148 72.455917 2.725644 0
-1.377290 74.503395 -0.678516 0
24.285164 74.153976 2.064048 0
0.149146 74.029381 0.309875 0
-0.580033 73.201508 2.165697 0
1.355400 73.194756 2.929973 0
25.743868 64.737595 1.452509 0
-10.672859 62.937515 -0.934119 0
-11.332785 63.663330 1.345220 0
-11.296114 60.857788 1.570448 0
-12.190819 57.967316 2.217574 0
-27.659668 37.672405 1.979677 0
-27.808485 36.000629 0.579063 0
-27.660528 36.445602 3.679326 0
-7.283374 35.558086 -5.867874 0
-24.996998 29.388918 2.225889 0
-10.891979 24.129496 -6.408619 0
-23.617889 26.453386 3.391259 0
30.413761 25.142405 0.527785 0
-32.722717 16.735535 1.968725 0
-35.085922 10.617355 1.711133 0
-19.499405 4.333082 -1.648236 0
-33.915379 4.559496 3.673029 0
-31.658842 1.897861 4.747845 0
-8.216698 4.431612 -4.858464 0
-9.366632 -2.062565 -2.831235 0
-23.789165 -12.035845 1.470360 0
-20.403723 -12.545124 0.978476 0
-16.292122 -6.210940 -1.053532 0
-17.066729 -11.236080 -0.145512 0
-10.704248 -8.428349 -3.696656 0
27.615559 -5.189457 -2.475639 0
26.202240 -28.154264 1.142372 0
26.475500 -32.406773 -1.343066 0
-27.296701 -34.848202 2.181664 0
-29.047392 -33.230831 0.069284 0
-32.964947 -30.163713 1.696361 0
-31.779678 -32.387653 2.516342 0
-19.783642 -42.428612 0.718211 0
23.738785 -42.802753 -1.511346 0
-19.159782 -45.287952 -0.703135 0
-25.264065 -41.493698 -1.402066 0
-22.406542 -49.558384 -2.493611 0
21.104588 -50.713509 -2.602554 0
21.961344 -50.796608 -0.360007 0
-16.045118 -54.982925 -0.778625 0
21.557823 -52.357395 -3.646029 0
23.176947 -52.495441 -0.955644 0
23.843184 -54.229233 -2.343253 0
-14.929388 -58.712772 -3.627910 0
-14.577552 -57.403770 -2.557501 0
-16.190403 -61.384132 -6.971373 0
-0.683842 -71.967880 -1.331224 0
1.062628 -72.721870 -1.106133 0
3.421487 -73.169281 -1.180957 0
6.130537 -74.012405 -0.952821 0
2.295251 -73.362152 0.988124 0
28.710608 -79.020645 -4.541581 0
19.909281 -81.668816 -3.164595 0
16.343744 86.774170 1.743821 0
14.560767 85.810867 3.108640 0
11.335116 84.730293 2.871813 0
25.240885 78.910362 2.614157 0
25.190628 81.453857 2.286986 0
25.184559 75.981354 3.481965 0
-3.134148 73.488068 2.517787 0
-12.453815 67.098946 2.179743 0
-11.888763 65.438354 1.471547 0
24.238232 70.736580 5.433506 0
-12.676588 65.894974 3.504623 0
-12.643890 64.945045 3.329075 0
27.529270 59.994026 1.388961 0
-11.711864 62.272221 3.426797 0
-12.415089 63.787334 5.498397 0
-15.791168 55.698723 1.042369 0
28.076849 52.774883 3.331409 0
-17.979929 54.068939 2.152956 0
29.579521 43.607815 -2.557646 0
-26.623386 38.887524 1.033301 0
-23.181810 29.077705 3.979919 0
-30.764662 17.942760 2.510764 0
-34.063629 15.051702 2.534270 0
-34.712364 12.608727 4.566024 0
30.403839 16.327003 1.043372 0
30.256989 8.434455 -3.361366 0
-11.863393 10.663605 -3.336314 0
-21.140860 6.230927 -2.172835 0
29.966362 5.531380 -5.853416 0
-15.887173 1.867100 -1.089767 0
29.359385 1.864333 -4.821058 0
29.752842 4.257564 -2.231799 0
-8.471908 0.701433 -2.739496 0
-8.534337 3.472565 -2.997963 0
-30.735924 -5.614385 4.263648 0
-31.098551 -7.573515 3.489915 0
-14.634838 -5.215919 -0.784315 0
-9.452777 -4.979813 -4.181468 0
-30.092318 -8.937565 1.770894 0
-14.590199 -8.842691 -0.742165 0
-29.994345 -15.962022 -4.388680 0
-14.450505 -12.102254 -0.660295 0
-32.789936 -18.659815 -4.334136 0
-22.611042 -19.003174 -1.213466 0
-22.267258 -20.333179 1.023836 0
-19.192211 -18.433874 1.023463 0
-15.604500 -15.116253 -0.190456 0
-33.065037 -23.879982 -2.351646 0
-32.173878 -26.254038 0.251938 0
-30.639765 -23.931442 -0.286341 0
-31.438044 -21.534225 -2.153210 0
-28.613792 -21.176405 -1.131143 0
-30.120863 -25.950504 2.256020 0
27.441435 -35.754597 0.434314 0
-18.308298 -43.445301 1.621647 0
27.435801 -39.522053 0.613790 0
-21.596895 -42.135082 0.270949 0
20.784008 -46.393223 2.153869 0
-19.877470 -47.822758 1.472544 0
21.619122 -50.476002 1.469824 0
-17.675961 -54.033344 1.343523 0
-21.281116 -50.971935 0.310617 0
25.510118 -54.631561 0.691055 0
28.762169 -59.590420 -0.058610 0
-15.068677 -60.853844 -4.609035 0
-15.225815 -62.858303 -5.869546 0
29.967148 -63.145859 0.541561 0
30.371691 -66.208710 -0.853352 0
-4.846468 -68.848618 1.147815 0
-0.617811 -72.511421 0.585097 0
20.941120 -80.349609 0.454922 0
17.709143 86.401733 3.348813 0
10.007720 83.505341 4.205154 0
5.160868 78.634552 1.796005 0
5.943563 79.468430 3.690821 0
-4.326879 74.657646 0.299264 0
-12.076721 67.543999 4.648272 0
4.353158 74.976242 4.127146 0
2.957390 73.774849 3.076869 0
23.861185 63.563099 7.061387 0
24.465288 64.957214 3.597369 0
27.905157 56.470879 2.374640 0
-23.277252 50.375916 3.728190 0
-26.427197 44.964302 4.745170 0
-25.552128 48.110695 3.338206 0
-26.218334 45.616013 0.983413 0
-25.673426 46.692574 5.909476 0
-24.906376 43.385773 0.102477 0
-27.682663 19.976990 5.446126 0
-18.218590 6.389867 -1.913720 0
-14.291400 9.073166 -2.373667 0
-14.992206 6.102163 -1.530171 0
29.481550 5.370474 1.925049 0
29.916088 9.842105 2.497021 0
29.566557 12.310229 5.814516 0
-35.104572 7.154480 3.159606 0
-9.971687 4.672641 -1.891942 0
-11.730643 6.959133 -1.982646 0
-29.288738 -0.565724 5.377367 0
-13.923755 -2.325676 -0.768200 0
-30.673512 -10.448646 4.187742 0
-28.457430 -10.698607 2.059335 0
-10.332609 -6.095171 -2.072391 0
28.873632 -0.030200 -1.322899 0
-27.127480 -17.979042 -2.775154 0
-12.096790 -9.428015 -1.585343 0
-30.167498 -19.043695 -2.858979 0
-17.392492 -13.881065 0.812397 0
25.467985 -17.316326 0.574913 0
-27.802204 -23.348841 1.050837 0
25.374163 -21.207634 0.907837 0
-30.463507 -33.216164 1.370886 0
23.124043 -44.436234 1.420747 0
25.265728 -42.921310 0.637535 0
26.944302 -42.137939 1.494388 0
-18.050543 -44.724869 1.527923 0
-27.093325 -40.590149 -0.714292 0
20.517685 -48.959946 2.111756 0
26.727997 -43.747097 3.445583 0
23.547092 -52.519318 1.866958 0
-14.188274 -57.552433 -1.053424 0
-20.186752 -52.048340 2.370576 0
-18.790798 -53.244545 3.357643 0
27.582212 -57.051983 0.399900 0
27.603796 -56.241909 2.003565 0
-6.724442 -66.329918 2.537962 0
-9.307578 -65.364929 -2.137246 0
-11.011738 -65.648148 -4.091593 0
9.023103 -75.298325 0.418397 0
11.593739 -76.947807 -0.320955 0
28.771057 -76.123459 -0.357041 0
29.567404 -75.716881 -1.770309 0
29.315485 -73.919846 0.564479 0
27.750790 -76.487640 1.160195 0
30.365570 -73.796898 -2.310208 0
28.209726 -74.281250 3.570696 0
28.179569 -77.941711 -1.791506 0
17.883177 -80.614555 -0.955554 0
7.957489 81.852974 4.416085 0
25.112177 81.886543 5.018993 0
25.750313 79.587578 5.151565 0
-7.228755 74.241570 0.352991 0
25.954756 77.488541 5.943642 0
-5.831090 74.771179 0.391517 0
5.008745 77.195831 3.295561 0
-5.842653 73.856125 1.697089 0
-5.800862 72.986275 3.490439 0
2.913365 72.917488 5.653970 0
4.990512 72.879974 8.177851 0
-11.907815 60.759983 5.390102 0
-11.376133 59.198273 3.853561 0
-21.727468 51.848824 3.392190 0
28.324732 48.350586 3.807002 0
28.772860 44.333958 2.996487 0
29.442837 40.831280 0.624818 0
-26.411417 42.623516 2.961239 0
28.969860 40.035065 4.324534 0
-27.293936 39.607948 4.167869 0
-25.999794 40.461597 1.494670 0
-23.930525 41.330772 -0.477184 0
-22.896179 25.195110 5.033037 0
-20.880497 26.727703 6.289828 0
-32.736580 14.695781 5.958174 0
30.064867 19.947306 3.426468 0
-12.427880 3.366329 -1.006584 0
-11.997869 -0.211966 -0.949267 0
-11.198293 -3.495363 -1.127097 0
-9.905134 1.392015 -1.472428 0
-30.035734 -4.978821 6.669171 0
-31.764624 -9.025284 5.565771 0
-26.634003 -13.045651 3.672379 0
-12.440399 -6.223833 -0.885070 0
28.285616 -2.392578 2.435883 0
27.516352 -6.405658 5.690410 0
-25.302605 -20.298691 -0.648027 0
-32.012482 -28.361855 2.950850 0
-32.266090 -30.673904 4.617333 0
27.086285 -31.650522 1.757372 0
27.799658 -34.568352 3.156721 0
-29.552099 -33.704609 4.247471 0
28.254612 -38.439983 3.571763 0
-27.205484 -37.681873 1.768563 0
-27.510332 -39.378574 0.603670 0
27.865356 -40.973518 2.703315 0
-18.495779 -46.492805 2.860177 0
28.086578 -43.364586 5.711937 0
22.311653 -52.484051 4.492826 0
-21.025961 -49.434361 0.908121 0
-13.831818 -56.669434 1.242939 0
-15.369104 -55.375706 2.692672 0
28.917458 -58.468929 3.191130 0
-13.691042 -60.510773 -2.055558 0
-12.407054 -62.324226 -1.219867 0
30.287401 -66.220772 1.200435 0
30.286451 -68.818382 0.357134 0
-2.686736 -71.712830 2.652483 0
-4.338161 -70.236130 2.335294 0
30.257444 -71.333618 -0.663755 0
5.815187 -73.976440 2.083661 0
29.658321 -71.389313 2.273510 0
29.431000 -71.394821 5.429557 0
20.621080 86.097046 3.895950 0
13.275745 84.477234 5.347207 0
26.004520 79.272003 7.567809 0
6.043744 77.513100 5.962751 0
5.690482 75.137398 6.867324 0
24.801128 73.409111 4.294607 0
25.383814 73.067505 6.651746 0
-10.268928 69.801483 5.835990 0
-5.677791 72.652687 5.018622 0
-3.399554 72.664536 5.942887 0
-0.535906 72.834320 3.538735 0
0.266757 72.459053 5.730083 0
-1.780210 72.629852 5.711996 0
24.957062 62.918308 5.406950 0
23.394571 63.498615 9.820277 0
-19.719580 51.942635 4.545706 0
-14.470339 55.261974 3.365117 0
-26.424845 34.625381 4.766683 0
-23.032341 31.146084 5.353990 0
-29.214273 18.264736 4.570788 0
-32.727352 3.118080 7.091265 0
-29.115141 -12.001692 4.093697 0
-25.045187 -22.453386 2.099911 0
-23.488825 -21.397987 4.371172 0
-27.704212 -24.970858 3.796349 0
26.097818 -24.053867 4.175667 0
26.996759 -27.946171 6.703332 0
27.454229 -31.367851 4.724281 0
-18.576099 -44.011951 5.520957 0
-26.367424 -40.522205 3.777129 0
-23.125622 -42.481255 2.272073 0
-25.240299 -41.938309 2.613868 0
25.109343 -44.700947 3.935045 0
-16.475000 -55.167873 5.658483 0
-9.386796 -63.977337 -0.073955 0
-8.732823 -63.485943 2.045767 0
-11.343685 -64.135132 -2.007922 0
-5.988678 -68.325058 4.133185 0
13.498508 -77.906708 1.744768 0
-0.028314 -72.783379 2.935089 0
2.690576 -73.135521 3.471590 0
18.387758 -79.936729 1.625655 0
15.978284 -78.816101 2.766533 0
17.569986 -79.318367 3.080091 0
26.451559 -80.021629 -2.697861 0
23.897202 -80.453529 -1.069613 0
25.977617 -78.733505 0.350726 0
24.237476 84.192047 4.142739 0
17.144306 85.267540 5.767601 0
6.399112 79.842331 5.091179 0
-10.923680 68.073387 8.446571 0
-12.036188 66.089546 7.741898 0
25.989346 61.956715 4.660617 0
27.460436 57.215183 5.253880 0
-11.516063 58.872307 5.810535 0
-16.455242 52.888008 5.299925 0
-24.068207 48.195477 6.194843 0
-20.908777 28.182909 5.937292 0
-27.104172 21.226923 7.094567 0
-26.609486 22.869522 8.220650 0
-30.382736 15.953900 7.402443 0
-35.469025 8.051548 5.071767 0
-34.533924 5.368590 6.375699 0
-31.547304 -7.880429 8.445422 0
26.739973 -11.106318 5.739928 0
28.076725 -2.068363 7.867521 0
-23.002483 -14.225124 2.987862 0
-20.269363 -15.285365 2.574875 0
-18.029974 -16.314970 1.614403 0
26.115807 -15.770114 5.114721 0
-30.075289 -26.994267 5.377235 0
-20.566776 -43.050690 3.908367 0
-17.669001 -45.821636 5.697869 0
22.022694 -45.396675 3.438323 0
26.963699 -44.977161 6.334137 0
25.105278 -54.472012 4.303881 0
27.305109 -56.030128 3.758921 0
-12.715247 -58.940983 0.587262 0
-12.379549 -60.689667 0.023593 0
30.213953 -68.168770 2.920723 0
0.089637 -71.801743 6.093469 0
2.885774 -72.128006 5.567963 0
5.282037 -72.959236 5.076007 0
4.435292 -70.763069 7.404495 0
18.629574 -78.598343 4.642406 0
22.960222 85.307083 4.642194 0
11.277994 82.671661 7.119870 0
20.312542 84.855797 7.026783 0
18.341343 84.050415 8.725521 0
7.026696 80.086464 6.164514 0
25.986694 75.340012 6.917426 0
25.514679 70.859680 10.096748 0
2.408366 71.730698 8.376804 0
23.816816 65.246887 10.745312 0
-11.753274 57.246273 5.721047 0
-12.633625 55.802006 5.203326 0
27.617048 53.567593 6.942478 0
27.970747 44.392185 8.360984 0
29.465279 37.643875 2.371582 0
-20.038996 30.404356 7.280022 0
-23.118904 24.711473 6.319070 0
-22.934055 25.266005 8.981290 0
-25.215794 23.924988 7.435279 0
-20.791761 26.148138 8.053367 0
-35.248230 9.970060 6.220706 0
-28.751165 17.459549 7.281599 0
28.954592 5.043638 6.777992 0
-34.818748 6.985873 8.450841 0
-30.237333 1.197425 8.172937 0
-29.194370 -3.050776 5.951748 0
-31.559393 -10.624893 6.905622 0
-29.773024 -13.143311 6.801069 0
-25.317274 -23.537273 4.092007 0
-22.014763 -19.246157 4.372127 0
25.814920 -19.768545 4.124002 0
-28.252277 -25.463165 6.684906 0
26.587706 -24.094336 8.304791 0
-31.651579 -32.238914 6.159603 0
-31.704727 -30.584951 7.914979 0
-26.241957 -36.846714 4.513069 0
-30.158812 -33.277443 6.863034 0
23.365103 -45.826817 5.524719 0
21.156666 -46.311913 5.036936 0
-13.100613 -56.810474 3.621935 0
-19.219109 -51.311119 5.700011 0
-11.796231 -58.735405 2.733131 0
29.713530 -60.630920 2.616628 0
29.811510 -61.264851 6.308496 0
-7.346190 -65.288879 1.096342 0
30.346750 -65.613762 3.252730 0
28.212019 -73.503319 6.375830 0
8.551688 -74.843742 3.303234 0
26.296824 -76.962021 3.046798 0
22.100983 -77.947235 5.509109 0
20.246071 -76.830650 7.939409 0
20.973753 -78.811234 4.093713 0
23.337112 83.498466 7.512459 0
8.671545 80.839355 7.290191 0
12.559612 81.330711 10.286072 0
14.080531 82.564911 9.493834 0
25.221081 81.245476 8.359339 0
6.859999 76.550377 7.962623 0
7.153203 74.890694 9.304206 0
7.063264 72.511826 10.974658 0
8.734312 74.427002 11.628851 0
-7.691079 71.654953 6.265168 0
-4.637210 72.158173 7.599344 0
4.671436 70.107605 11.347257 0
24.435558 68.023689 9.583007 0
-9.695406 68.009346 10.675075 0
-9.635099 69.339798 8.837420 0
-8.061308 70.479652 8.755821 0
-8.045741 69.054260 11.087749 0
25.083506 59.860882 8.861422 0
23.781469 60.729683 10.415148 0
26.691809 59.399323 5.849736 0
-13.927484 53.654102 6.640767 0
27.843027 49.528847 7.050902 0
28.451780 40.708202 7.198715 0
-24.363400 33.133705 5.882135 0
-25.498631 24.448812 10.331806 0
-27.523695 21.344627 10.190198 0
-18.268356 28.574734 9.333494 0
-34.012897 11.475328 9.034146 0
28.761560 1.332735 4.784862 0
-26.892742 -16.152962 6.665900 0
-20.247055 -17.520130 3.195101 0
-31.314167 -28.712696 7.031065 0
-28.234812 -34.176910 3.873062 0
-25.744301 -38.159195 6.523345 0
28.306381 -34.915470 7.341197 0
27.893185 -31.955984 8.066144 0
28.508163 -37.100372 5.750708 0
-21.810223 -43.329872 6.161096 0
19.712288 -49.110970 5.143187 0
20.149818 -48.072800 6.615291 0
21.846222 -46.233086 6.142975 0
28.720881 -41.480133 6.812577 0
20.358255 -50.972206 4.999310 0
25.520712 -46.197048 7.538557 0
-14.040467 -56.632954 5.517684 0
-18.126982 -53.691643 6.087416 0
28.708149 -58.335236 5.901683 0
-8.546713 -63.534328 4.060164 0
-10.355935 -60.859669 4.818467 0
-10.814373 -61.261616 1.747986 0
30.189047 -62.187950 3.596195 0
30.381453 -63.999611 4.742898 0
2.045286 -70.782524 7.240577 0
2.671808 -68.744583 9.057401 0
4.666179 -68.297539 9.200257 0
-4.871377 -70.096413 5.086049 0
11.093590 -75.846649 4.503814 0
-1.848930 -72.028313 4.964272 0
25.950727 -75.794403 5.959963 0
23.735405 -78.611725 2.873440 0
15.072570 83.870117 7.759823 0
7.342114 79.109856 7.464322 0
16.902945 82.760635 10.543552 0
18.476955 81.277390 13.338430 0
19.732637 82.597763 11.516132 0
15.487256 81.326653 12.077328 0
26.062201 78.991898 10.126840 0
26.427341 76.276237 9.960188 0
-6.121818 71.420532 8.959335 0
-1.065960 71.831993 8.588066 0
26.156715 73.635071 9.380655 0
-3.829767 71.558838 9.787482 0
-12.783434 63.003078 9.374430 0
-10.842034 66.640823 10.519223 0
-12.709266 60.463108 8.376056 0
-12.177261 58.062302 7.877487 0
-18.109303 50.421471 7.259022 0
-15.281062 50.940533 8.290128 0
-13.496280 52.005871 9.519185 0
-12.604699 55.004704 8.617504 0
-21.313599 49.699093 6.527135 0
-19.704638 47.841740 8.823024 0
-16.553127 48.130737 9.692449 0
-13.277479 52.393604 12.027359 0
-14.092107 48.471184 11.408917 0
-26.780304 41.998337 6.257300 0
28.876827 35.734322 7.058951 0
29.720537 34.442101 2.202709 0
-26.701614 38.154846 6.680778 0
29.698900 25.951153 5.013991 0
-32.807972 12.753276 10.072721 0
-31.316391 13.699994 10.592831 0
-27.675123 19.091892 10.239228 0
-28.227779 16.388029 11.219282 0
28.833271 7.466921 10.213511 0
-28.570168 0.182047 9.223247 0
-27.162958 -0.707713 10.658402 0
28.342636 1.994981 10.546416 0
-31.889946 -11.476110 9.442580 0
-24.962629 -15.181735 4.655862 0
26.292118 -19.370514 8.332596 0
-25.189901 -36.767513 8.169929 0
-25.982908 -39.483559 6.246243 0
-17.508932 -45.859707 9.258012 0
-20.073559 -43.990837 8.124497 0
-25.055172 -42.041233 6.527695 0
-17.994753 -46.915413 4.989279 0
-23.576818 -42.923336 6.403147 0
-18.504793 -48.626942 6.264643 0
27.866171 -45.743320 10.240037 0
28.699532 -43.567120 8.938041 0
-11.960363 -57.385864 4.661674 0
-12.069183 -58.226486 5.747495 0
-11.456689 -58.396267 4.340871 0
-10.985171 -62.887825 -0.076961 0
6.013969 -66.776054 10.985722 0
6.452219 -69.790405 9.689841 0
4.865211 -66.050613 10.417021 0
30.355190 -67.302849 6.101498 0
30.013248 -69.590286 4.263473 0
0.515034 -69.936005 8.992295 0
8.267642 -74.000313 6.077510 0
6.569545 -72.061371 7.573889 0
-3.642462 -71.104553 5.838255 0
-4.828724 -69.327141 8.650154 0
-2.672526 -70.715202 8.033437 0
16.212198 -77.092804 7.325458 0
21.316462 83.524628 9.629399 0
10.180240 80.743996 8.977710 0
8.688959 78.141670 9.476995 0
11.098653 79.794403 10.831125 0
8.768437 76.112038 10.732609 0
9.465128 73.048164 13.924864 0
11.191464 75.039406 14.700179 0
10.516529 76.305519 12.844939 0
7.349699 70.787590 12.932247 0
26.489491 73.027657 12.642366 0
1.794727 70.573715 10.587975 0
-11.430431 64.775574 11.782171 0
-8.564292 66.478340 13.164602 0
24.837917 65.349434 14.386423 0
23.392616 60.804234 12.703277 0
27.019602 55.391449 9.071981 0
-22.584347 47.194492 8.201772 0
-18.189400 45.590862 10.452732 0
27.447113 50.269344 9.992258 0
29.536501 31.306362 4.643956 0
29.012928 30.591707 8.317414 0
-24.254107 36.107674 8.090739 0
-20.750362 35.093746 9.344818 0
-20.916136 38.086750 10.455559 0
-23.658092 38.058083 9.893004 0
-22.783699 34.135597 7.912567 0
-21.066109 32.624294 7.757124 0
-17.595562 33.253929 9.884364 0
-18.311472 36.084686 10.555250 0
-14.324159 33.809948 12.058242 0
-15.412519 36.360657 11.554000 0
-15.388998 31.226273 11.601338 0
-17.493210 30.752983 9.372108 0
-27.255409 23.278095 12.208740 0
-23.754240 25.838118 11.727833 0
-19.392351 27.153316 10.873183 0
-27.999393 18.140865 8.454550 0
-29.287071 14.621245 11.772080 0
-34.689320 8.913053 9.729676 0
-30.894991 2.307390 10.333324 0
-27.575241 0.989580 13.476748 0
-33.078560 4.473495 10.262794 0
-27.115637 -2.061180 9.903413 0
-27.993059 -3.859900 10.053554 0
-25.878120 -3.124154 12.514006 0
-24.831287 -1.767810 14.349378 0
-29.781044 -5.797421 10.079209 0
-23.195425 -17.056360 4.852650 0
-25.132051 -19.700930 6.773568 0
26.643761 -21.723812 11.276507 0
-26.147434 -23.981485 5.756152 0
-25.826160 -35.067753 8.154682 0
-24.420362 -35.883976 10.421850 0
-27.597345 -34.041607 8.530810 0
28.853840 -39.880554 8.199903 0
-17.391735 -47.797390 9.629275 0
21.512739 -47.500511 7.713837 0
19.286076 -50.373558 8.394224 0
19.413830 -52.375610 7.682889 0
-12.352663 -59.098507 8.187435 0
20.996439 -53.329552 6.678387 0
20.516636 -55.091068 8.687514 0
22.814457 -55.951523 8.184032 0
26.973700 -56.338886 5.955997 0
19.249769 -55.671730 10.710296 0
21.384422 -57.694958 10.553346 0
-8.760130 -63.769817 6.355016 0
1.871902 -66.613235 11.720323 0
3.544607 -66.113861 10.680449 0
30.390734 -64.435226 7.494627 0
5.147323 -63.957008 12.410407 0
-6.179648 -68.292946 7.270024 0
30.110764 -68.871185 8.770226 0
29.979116 -69.856247 7.224217 0
28.941580 -71.470016 8.854658 0
-1.375685 -70.000641 9.655263 0
10.942904 -74.223763 9.565290 0
13.907107 -77.266228 5.005734 0
25.088926 80.180763 11.745946 0
-5.488453 70.085815 11.419767 0
8.479738 70.360855 15.331874 0
5.949701 68.268707 13.971801 0
26.356709 70.272812 15.026889 0
25.416985 68.384949 12.874272 0
2.903610 66.158234 14.132692 0
-12.631464 63.094578 12.098206 0
-11.912013 62.270649 14.673683 0
23.874834 62.079220 14.016694 0
-15.187649 44.929218 11.684772 0
-24.946795 44.764992 7.965377 0
-21.646021 44.911568 9.835690 0
-13.375709 43.827991 14.087676 0
-14.738072 40.376896 12.388348 0
-16.847561 42.875061 11.508808 0
-19.386663 43.227074 10.978286 0
-12.599508 32.728596 14.869254 0
-12.907500 36.427803 13.234448 0
-15.997292 29.423775 13.406961 0
-13.767341 30.549192 15.007204 0
-25.723606 25.640472 13.368753 0
-23.553635 26.894228 14.076325 0
-21.021418 27.019854 12.890365 0
29.439054 19.322168 7.536783 0
-26.701357 14.404685 15.724859 0
-32.448303 -9.897055 11.636492 0
27.264433 -7.920611 10.328975 0
-29.576754 -15.028326 8.596825 0
26.586735 -14.058716 9.628610 0
-29.778349 -26.049021 9.297604 0
-26.957479 -23.123556 7.914697 0
27.041197 -26.200001 11.723828 0
27.695402 -30.531548 10.485746 0
-30.847692 -31.634939 9.535497 0
-24.832130 -39.176697 10.709898 0
28.769236 -37.657196 8.118470 0
-25.137487 -41.001953 8.998997 0
-18.593107 -44.917717 9.834788 0
23.191751 -47.748806 8.874908 0
20.796095 -50.108490 10.696532 0
28.748154 -42.805260 12.353580 0
18.689602 -53.028797 9.966635 0
-16.890179 -54.982540 9.282013 0
25.669891 -57.289219 8.189779 0
24.007235 -54.841717 6.335663 0
27.743670 -57.844288 7.475309 0
18.639376 -54.642738 12.753315 0
3.405586 -63.674088 12.996337 0
29.748100 -63.552628 10.018123 0
-7.316215 -66.317322 6.736390 0
7.341470 -67.806747 12.345750 0
8.370340 -72.197357 9.828697 0
17.835682 -76.306488 9.557441 0
27.560816 -73.519875 8.590033 0
23.442720 -76.890823 6.527760 0
23.453020 82.141579 10.994278 0
26.226078 77.572304 12.655065 0
13.773361 79.774750 13.020582 0
16.961206 79.855553 14.886559 0
-2.477538 70.913536 11.263028 0
-0.299531 70.791862 11.142159 0
7.255853 67.938828 16.223640 0
26.190683 57.002136 9.974733 0
-0.790317 64.022362 15.562226 0
1.167791 62.705894 15.527057 0
2.366944 61.050861 15.999936 0
0.998026 60.132263 16.704081 0
3.470217 63.039211 15.566062 0
-1.389709 60.659996 17.411222 0
3.197359 59.407528 17.803577 0
-12.950511 56.569038 10.768167 0
23.594831 59.069092 13.207937 0
0.557170 58.327499 18.284492 0
27.082798 51.713058 11.714205 0
27.513783 47.184990 10.488062 0
27.503790 41.319782 12.484621 0
28.020443 38.004360 11.126476 0
-23.350410 40.028217 10.551801 0
-25.440195 38.779369 9.095628 0
-11.111854 36.241661 15.521195 0
-10.616183 34.007946 17.825729 0
-27.080769 25.277391 15.087109 0
-27.729122 20.543488 13.048829 0
-31.803686 10.976955 14.595187 0
-29.544573 12.998483 14.350271 0
-33.507263 9.228167 12.765043 0
29.147125 15.308752 10.038050 0
-33.608360 6.750184 12.300376 0
-30.552519 2.952775 12.986094 0
-30.339834 -6.792170 12.560559 0
-31.252333 -14.327285 10.964278 0
-28.694914 -16.096207 8.541747 0
-29.386683 -16.968119 10.090188 0
-27.443159 -18.661451 8.773277 0
-29.373016 -22.867054 11.163928 0
-30.731850 -28.509300 11.118997 0
-24.401323 -35.164490 12.003258 0
28.324903 -34.856350 10.999169 0
-29.375885 -32.852505 10.256361 0
-21.937561 -43.771618 10.087550 0
-23.757185 -42.682480 10.574869 0
-17.826242 -49.354576 10.072689 0
26.833836 -48.966091 13.119902 0
26.354418 -47.595474 10.445899 0
-17.310375 -54.217735 11.594284 0
-18.634697 -52.241730 9.610971 0
-14.453200 -56.960281 7.452660 0
-10.433793 -61.294167 7.266587 0
6.869301 -65.041435 13.392088 0
6.318048 -62.568005 14.566628 0
19.702677 -58.652363 12.778543 0
21.769281 -60.274769 12.801308 0
-6.733552 -66.636673 10.864882 0
1.103558 -68.412361 10.516815 0
-0.558982 -67.994827 12.515529 0
-3.645612 -68.437737 11.847853 0
16.153202 -75.510422 11.146694 0
23.953262 79.999786 14.098286 0
25.706959 76.730766 16.279598 0
21.387226 80.810814 14.254318 0
22.108274 82.002518 12.280029 0
26.582829 75.207916 13.870439 0
26.700943 72.669991 16.899448 0
-6.743135 68.393158 12.691074 0
-13.160315 61.449196 12.477744 0
2.257446 68.473740 12.625710 0
5.410110 65.470230 15.896973 0
-13.307158 59.571091 11.438130 0
24.582266 62.448051 16.297974 0
4.647775 62.300709 16.896015 0
-13.573014 56.768295 13.373431 0
-13.750516 57.959789 14.171489 0
24.413311 57.415573 13.589822 0
25.423656 56.192772 12.568768 0
26.388264 53.106850 13.446009 0
27.092152 47.719723 13.661366 0
26.660013 48.765835 16.102886 0
-13.571276 54.429344 13.837260 0
-14.160670 51.610683 15.545525 0
-26.042665 41.368191 8.515937 0
-23.878218 42.713818 9.964121 0
-13.597720 48.561653 13.864959 0
-21.341965 41.550346 10.849994 0
-18.397919 40.585667 11.412295 0
28.326839 33.264484 11.774843 0
-17.357296 38.348736 11.376678 0
-12.400585 39.470417 13.862250 0
28.985823 26.526690 9.856246 0
28.578829 29.203712 12.068846 0
28.563704 25.271433 13.991725 0
-27.950388 -5.372017 13.756800 0
26.744078 -17.253206 13.623182 0
-30.310394 -24.836575 13.187270 0
27.492334 -29.800848 12.880865 0
-24.320086 -37.698021 11.964709 0
28.751654 -38.446480 10.745317 0
-20.068729 -44.918808 12.411486 0
-17.188629 -47.322128 12.496266 0
24.954144 -47.704365 9.578547 0
-18.251682 -50.888168 10.227533 0
28.213722 -47.391903 14.285743 0
19.105970 -51.975502 11.094881 0
-14.498384 -57.267097 14.124342 0
-14.708813 -57.237720 9.928647 0
28.567451 -60.112049 8.761304 0
-15.942865 -55.292400 15.326624 0
-12.434886 -59.773159 11.746022 0
-10.502545 -61.876221 9.517962 0
18.563423 -57.161327 13.890471 0
24.221134 -59.387951 11.058001 0
3.101193 -61.606335 15.182252 0
4.835123 -60.681499 15.221458 0
8.089920 -70.244942 11.796983 0
13.045214 -75.985268 7.773937 0
15.214488 78.316406 15.851985 0
20.057175 79.625923 16.157499 0
11.140577 78.413353 12.047191 0
-1.167486 69.554672 12.855411 0
0.646077 69.298744 12.503557 0
11.609362 74.137466 16.379543 0
10.445944 72.138046 17.161053 0
-0.602242 66.950272 14.142057 0
25.977871 67.572647 16.298706 0
25.497789 62.800163 18.782495 0
-13.338834 59.554207 14.593941 0
24.122332 58.013863 16.113174 0
-14.305994 48.638813 15.954733 0
27.235704 44.303818 13.385026 0
-11.598081 39.937233 15.388062 0
28.904364 22.306370 11.543029 0
-14.166255 30.305840 17.245245 0
29.248585 23.539917 8.426095 0
-27.837708 22.716654 15.444044 0
-27.279213 20.098478 15.855241 0
-18.357489 27.982687 13.482726 0
-27.042105 17.625683 14.346122 0
-31.782087 4.879490 14.375826 0
-31.611162 -8.305480 13.635787 0
-24.599424 -4.184535 16.044401 0
-21.074545 -2.755574 19.576843 0
-32.400143 -12.373291 12.612041 0
26.912054 -28.824903 15.271954 0
26.778160 -24.497362 16.125807 0
-25.451225 -34.283916 12.452486 0
-23.999832 -36.459301 13.550058 0
-28.143642 -32.545166 13.056550 0
19.670128 -53.288002 13.862135 0
-8.624532 -64.514236 9.336405 0
7.801013 -63.649082 16.435677 0
20.165598 -61.018364 14.711490 0
30.243719 -66.599899 9.540275 0
29.266047 -69.507896 11.087011 0
18.569353 -75.084564 11.850060 0
21.416363 -75.091164 10.855099 0
23.975246 -75.183960 9.208589 0
23.228107 78.794495 16.683544 0
13.096969 76.287971 16.120327 0
12.772417 77.914032 14.120201 0
-3.460526 69.564255 12.863235 0
-4.881401 67.288300 14.049428 0
8.821087 69.488205 18.108812 0
-9.893480 64.120941 14.798131 0
-3.444576 65.209892 15.431789 0
-4.107359 62.596748 17.223867 0
24.764448 59.560825 18.254620 0
5.010278 60.630947 18.659056 0
5.897461 63.729420 18.204514 0
5.078761 57.765614 20.730402 0
2.335760 56.960220 19.897720 0
24.972040 55.040176 15.234797 0
-14.028369 46.180599 15.959171 0
-15.430663 47.866337 18.233273 0
26.977695 40.301567 16.049314 0
26.835125 42.336479 16.839687 0
27.537264 33.209415 16.295404 0
-10.295985 35.874195 18.664801 0
28.127108 29.110266 15.556846 0
-18.055286 28.843122 16.546661 0
-11.421735 32.138710 19.195589 0
-24.541185 27.494177 16.719540 0
-27.894154 24.942806 17.054459 0
28.933451 18.623528 11.962780 0
-31.938648 7.451299 16.510006 0
-29.492439 11.861381 16.695572 0
28.923727 11.655386 11.994760 0
-29.261198 -6.796912 16.536076 0
-26.542603 -5.627413 17.362818 0
27.006767 -11.492664 13.488547 0
26.834806 -21.863520 14.285521 0
-29.592421 -27.320385 15.216056 0
27.768967 -33.391872 13.802999 0
-26.491484 -33.417656 13.674797 0
-29.878143 -30.616440 12.785704 0
-24.111092 -41.208199 13.763412 0
-22.240051 -43.827473 14.593516 0
22.779482 -49.450684 11.179924 0
22.951305 -51.205055 13.548506 0
24.692617 -49.279625 11.804547 0
25.032633 -51.185013 14.570917 0
26.694822 -51.521698 16.573284 0
18.905855 -56.166912 16.492067 0
26.798771 -59.881714 10.490542 0
6.591655 -60.593800 17.025820 0
2.088297 -63.205643 15.287180 0
1.999907 -60.743534 17.691677 0
3.325879 -59.770622 16.448645 0
18.611938 -59.895531 15.903566 0
-9.724856 -63.059177 12.294086 0
2.133739 -64.797668 13.419330 0
8.260176 -66.407883 15.050674 0
23.417595 -61.819637 13.776747 0
21.858192 -62.821728 15.764164 0
22.374596 -72.820763 15.043815 0
20.304201 -73.953468 13.622989 0
22.098335 -73.907837 12.888528 0
23.887318 -73.834763 11.879519 0
24.595390 -72.944611 13.218907 0
26.836941 -72.177200 11.895749 0
9.061868 -73.601387 8.652856 0
13.863503 -75.078918 10.936562 0
26.189629 -74.356705 9.066729 0
-6.942784 64.533524 15.771512 0
26.021646 65.473618 18.632818 0
6.254628 62.422211 19.999119 0
-13.914704 55.666557 16.832518 0
25.597036 53.306408 15.751526 0
-1.609427 57.838757 19.612041 0
-0.276988 56.577374 20.421282 0
-25.071646 40.747009 10.042635 0
-14.120130 43.679611 17.662004 0
-15.631047 44.729511 19.216597 0
-12.455996 41.288666 16.902948 0
-10.882908 38.142738 17.304523 0
-25.703243 27.656891 19.280346 0
-26.873283 26.629265 17.385979 0
-21.585388 27.904713 15.598569 0
-21.323927 28.630634 18.004395 0
28.619488 20.411860 15.632548 0
-27.165768 12.377146 17.895508 0
-23.905931 -0.638700 16.341419 0
-24.770521 0.818404 17.155821 0
-22.383484 -0.313956 19.105467 0
-28.909668 3.032089 16.222572 0
-21.153301 -5.174455 20.324600 0
-31.746172 -14.874041 15.061779 0
-30.870993 -17.213055 12.675353 0
-29.194462 -19.585691 10.936996 0
-30.249760 -20.078152 12.504707 0
-30.779942 -20.234898 14.412973 0
27.044046 -13.843682 15.922148 0
-27.495466 -21.093767 9.309078 0
-29.767212 -22.726425 16.466099 0
-24.241781 -34.849602 15.094910 0
-24.127329 -38.291241 15.579119 0
-24.035334 -35.748962 17.665035 0
28.375975 -38.537708 14.050418 0
-18.118385 -46.344368 13.134372 0
-23.205618 -42.834221 17.145914 0
-17.328302 -50.343166 13.819912 0
-18.044270 -52.686771 12.022251 0
21.395601 -52.606934 14.571131 0
5.711431 -57.755390 18.282398 0
4.679845 -55.452316 19.174389 0
3.875058 -57.642445 17.900293 0
25.248289 -62.490658 13.954640 0
20.078558 -62.651627 17.044703 0
8.804374 -69.107613 14.110916 0
-5.544154 -66.303955 14.806092 0
18.165880 78.108627 17.931248 0
-2.408066 68.424644 13.776758 0
26.747860 68.278679 20.121222 0
-3.669886 60.285576 18.732286 0
7.223238 66.665497 18.439039 0
-12.553340 59.704987 16.486149 0
-12.587800 58.434196 18.183273 0
5.966888 60.298466 20.375362 0
25.075434 53.372147 18.560581 0
3.518762 55.451626 22.289101 0
-16.160477 50.280899 20.247469 0
-15.071048 51.857723 18.024244 0
-16.943289 47.654079 20.762724 0
26.780157 44.552673 17.684320 0
26.635866 39.526264 19.879089 0
26.819836 36.567036 18.248348 0
27.345766 37.735813 14.879124 0
-10.398619 34.582127 22.236267 0
-11.319052 37.357834 20.202017 0
-11.758971 36.713737 22.867655 0
-27.149456 25.701965 19.502708 0
-22.869377 28.652311 20.425591 0
-16.034052 29.665339 19.974560 0
28.279249 24.245853 17.714628 0
28.766306 15.288328 14.469975 0
28.600437 16.233379 17.755238 0
-31.293095 9.224398 18.582809 0
-25.088156 16.092007 17.457352 0
-22.916523 13.912207 19.703146 0
-20.142254 14.214770 22.576057 0
-22.881813 16.350840 20.490208 0
-23.868555 12.238328 20.069544 0
-19.679794 11.306141 23.163527 0
-17.072165 11.867601 24.594980 0
-25.597553 18.585775 18.120579 0
-23.444679 1.145356 20.341734 0
-26.086084 2.072793 18.485378 0
-30.173410 4.912780 17.758535 0
28.344379 4.137345 14.090437 0
28.059221 0.486165 13.696004 0
-31.198322 -8.865246 17.250130 0
-32.342815 -10.908315 14.904317 0
27.789862 -3.118829 12.525643 0
-24.970301 -33.415478 17.749269 0
-26.634033 -32.070663 16.860872 0
27.517384 -36.053402 16.118254 0
26.734184 -32.706841 16.725903 0
-24.197777 -39.977245 17.232531 0
-17.102057 -48.635246 13.288516 0
28.451239 -42.439507 16.353039 0
-17.487207 -48.699902 16.486956 0
23.559996 -53.752068 17.218496 0
5.606749 -55.103127 20.045797 0
28.300911 -50.034534 17.880547 0
28.650095 -45.991219 16.689066 0
-16.885696 -53.072819 15.144231 0
7.816767 -61.541901 19.232983 0
6.898548 -58.627689 20.030935 0
18.141546 -58.281166 16.646217 0
26.857235 -62.107132 12.785868 0
28.514048 -62.033588 11.327172 0
19.128788 -61.624348 16.699953 0
0.996794 -65.616547 14.412278 0
0.973362 -63.352169 17.361959 0
23.897034 -63.935467 16.059170 0
9.693171 -68.027969 16.554806 0
22.682791 -64.836304 18.027328 0
24.724180 -72.448105 14.237206 0
18.125053 -73.707687 14.712095 0
26.491070 73.524971 20.252756 0
13.363997 74.341545 18.958036 0
26.991869 71.258888 19.912973 0
-10.121005 61.537346 17.556776 0
-7.295186 62.381546 17.867443 0
25.929340 60.083286 21.429480 0
25.622335 56.529789 21.733580 0
-13.211020 56.289471 20.211344 0
-3.560662 58.269306 20.380384 0
-14.890469 53.562351 19.984379 0
26.008207 50.286919 17.798895 0
-15.378660 42.363319 20.503174 0
-11.779499 39.279305 18.511139 0
-13.018989 38.440933 21.776520 0
-13.395683 40.460392 19.658695 0
-19.226357 29.222786 20.505535 0
-12.842537 30.666401 21.020109 0
27.663183 27.534731 19.560999 0
-27.594608 23.715654 18.514254 0
-28.192410 11.042585 19.866350 0
28.544674 10.932438 17.865965 0
-17.687830 13.906692 25.438282 0
28.600391 8.315330 14.284679 0
-22.163847 10.408302 23.709858 0
28.389517 6.628119 17.273951 0
28.214554 3.509382 17.526869 0
-21.210194 -0.174535 22.322235 0
27.992853 -0.516629 17.015366 0
-31.715460 -11.628653 17.547974 0
27.601555 -6.317736 15.977668 0
27.391315 -10.723134 17.255840 0
-25.662338 -19.103516 20.851490 0
-27.233212 -17.677053 20.447462 0
-26.926750 -20.330387 19.451981 0
-24.769527 -21.776173 20.443747 0
-30.826502 -17.890886 16.772642 0
-23.284847 -22.457779 22.064528 0
-23.390207 -24.413059 21.667717 0
-24.530632 -24.185383 20.370033 0
-26.201843 -23.722927 19.443140 0
-24.729790 -26.814938 21.084711 0
-23.015795 -26.352909 22.888130 0
-23.961811 -41.448227 17.864649 0
-18.941799 -46.597118 16.074572 0
-1.373635 -47.405182 22.778938 0
0.138360 -45.401215 22.921465 0
-2.091025 -45.090382 23.234627 0
0.451907 -46.976871 21.977760 0
1.985284 -47.385494 22.220953 0
4.648736 -52.900230 21.507711 0
25.724396 -54.356468 19.146830 0
24.116987 -56.420544 21.261797 0
2.701967 -58.728821 18.028816 0
17.843166 -60.254501 18.951498 0
-11.509321 -60.482037 15.037268 0
9.112547 -64.017265 19.241394 0
-12.398859 -58.528179 18.031410 0
28.656853 -64.667549 13.312521 0
9.680705 -66.117195 17.982746 0
29.466024 -66.842529 12.365254 0
25.420694 -64.445229 16.025299 0
19.881283 -72.862389 16.052370 0
10.076281 -71.854820 13.000269 0
24.379833 -71.728714 15.822388 0
15.473892 76.636917 18.162767 0
21.595377 78.079094 18.736330 0
24.280416 76.828690 19.550619 0
25.703852 75.457733 20.053610 0
10.700693 71.356178 19.868603 0
8.762965 68.213425 20.919043 0
10.317248 70.223389 21.874147 0
7.468243 64.936211 21.094137 0
6.702585 65.070404 19.219168 0
-6.290773 61.288494 18.991522 0
-5.800965 59.488586 20.329035 0
-11.696832 58.938713 19.471125 0
6.160044 55.534969 23.239946 0
8.167587 58.455395 23.724424 0
7.894087 55.311363 24.342918 0
26.485647 57.076859 24.179510 0
24.844671 55.993694 19.338129 0
4.528269 53.668575 25.064611 0
-2.805777 56.025169 22.786337 0
7.565681 52.651695 26.199890 0
-16.803267 44.909191 21.048635 0
0.618150 55.476124 22.216614 0
26.454508 45.823997 20.678951 0
-17.447065 44.284637 23.710312 0
-17.567974 46.357254 22.741568 0
-14.842597 40.088341 22.476734 0
-13.542573 38.142090 24.371494 0
-20.788755 28.935328 23.609293 0
-26.028669 26.528923 21.634026 0
-14.554116 30.033646 22.575159 0
-16.920326 29.637192 23.990217 0
27.944386 23.330902 21.254827 0
-26.962547 21.587448 18.313499 0
-21.003412 16.993382 24.208017 0
-30.157316 10.395457 19.453054 0
-25.305834 11.215067 21.240650 0
-19.541227 9.536481 25.405455 0
-16.969393 8.337757 26.960611 0
-19.041183 -1.989451 23.540857 0
-27.361368 3.600235 20.241226 0
-23.993391 -5.661620 19.744841 0
-26.560762 -6.617272 20.671978 0
-29.429090 -7.633078 19.548973 0
-30.858246 -14.156711 18.561733 0
-26.019865 -17.067949 22.927078 0
-27.600765 -15.594486 21.608356 0
-29.325256 -18.200716 18.657938 0
-28.187767 -22.154943 18.368862 0
26.903694 -19.906532 17.887091 0
27.356165 -14.821639 19.075344 0
26.343895 -23.436689 20.081835 0
-22.576458 -24.497524 24.317003 0
26.122786 -26.674820 18.288286 0
24.339212 -29.555042 22.339031 0
25.067549 -28.374050 20.081345 0
24.496046 -28.032927 22.431805 0
24.845535 -30.611568 20.337652 0
25.898573 -30.002501 18.009554 0
24.418571 -28.477571 25.616173 0
24.664892 -31.915768 22.679325 0
25.544405 -32.951900 19.663858 0
-28.579149 -30.481684 15.605081 0
-1.585242 -43.560795 24.130030 0
-20.471498 -45.305897 15.369141 0
1.311522 -48.871876 22.144379 0
3.381784 -55.288685 19.894779 0
20.680098 -55.088825 17.444330 0
27.587921 -53.501316 20.193382 0
28.585819 -52.241596 21.445724 0
28.681627 -48.553585 19.698910 0
-16.759493 -51.396954 17.837870 0
-14.206426 -55.775845 19.419973 0
18.528589 -62.494690 19.293169 0
-9.237066 -62.942902 15.267329 0
-7.746003 -64.998611 13.747840 0
-0.225237 -65.804840 16.236486 0
28.346241 -69.604279 13.462311 0
27.913963 -67.936005 15.344807 0
-3.777935 -67.091232 15.324988 0
20.764013 -71.598366 18.140078 0
-2.086086 -67.155533 15.300289 0
17.351131 -72.440079 17.067818 0
15.532078 -73.766624 14.322410 0
12.610177 -73.174728 13.785541 0
12.588697 72.857704 20.896042 0
26.960234 70.363068 22.348278 0
26.601030 63.570824 22.590565 0
26.772432 59.652210 24.386753 0
9.114163 54.691525 26.070589 0
-5.761671 57.017776 22.654875 0
25.855572 48.835312 20.971006 0
25.740860 49.940990 22.584215 0
25.630432 52.983582 22.359753 0
-16.522459 42.141918 23.185667 0
26.716242 41.683613 21.861212 0
26.318817 34.890160 21.934244 0
26.692640 33.112648 20.030930 0
-24.923923 28.134298 21.353626 0
26.192656 30.967112 23.335812 0
-26.072609 23.434050 21.576538 0
-10.836722 32.033611 23.486094 0
28.387661 19.484335 20.068108 0
-23.703463 18.576208 21.227814 0
-30.130043 7.623666 21.090900 0
-14.177741 10.674648 27.647532 0
-15.278265 9.217861 26.336771 0
-23.575342 2.063245 23.657719 0
-17.640856 -4.096489 23.598232 0
-17.936779 -6.073250 23.141020 0
-21.576103 -6.376095 21.938540 0
-28.466677 -16.218092 20.277166 0
-29.324356 -14.214983 20.881802 0
27.220882 -18.061447 20.795080 0
-27.621197 -26.127600 18.412436 0
-25.769728 -27.872820 20.309532 0
-25.000687 -30.697113 21.396009 0
25.287132 -26.350956 21.591047 0
-23.213383 -28.805542 24.189207 0
25.656645 -35.629181 21.871031 0
26.492521 -35.645386 18.634634 0
-24.018490 -38.749958 19.398518 0
-23.912735 -36.935768 20.319378 0
-3.975672 -43.946644 25.227268 0
27.594198 -39.199825 17.708799 0
