#!ascii version written be Caret
3057 6022
-77.959572 -26.499714 -4.308552 0
88.650246 -16.433264 -4.596085 0
85.384300 -16.646200 -4.458224 0
79.277008 -0.303887 -4.309788 0
-79.395439 8.544781 -4.364199 0
71.149750 48.309952 -4.446048 0
-64.538612 61.212807 -4.355262 0
-25.767971 84.694344 -3.660075 0
24.117735 87.526039 -4.564163 0
30.087185 83.713936 -4.172501 0
19.575285 89.978889 -4.503922 0
20.368574 87.425766 -3.538624 0
16.237461 91.329216 -3.602244 0
16.186974 93.954971 -4.935257 0
2.223150 -95.014259 -4.366526 0
-34.104008 -83.532005 -4.305670 0
-43.641300 -78.164696 -4.403681 0
65.532417 -44.644753 -4.210588 0
-68.965378 -38.276169 -4.228546 0
-79.811134 -19.708313 -4.220254 0
-81.726234 -16.472485 -4.309060 0
-77.107758 25.033243 -4.359039 0
-70.933296 45.139568 -4.286421 0
60.412918 64.219292 -4.314222 0
-53.754139 69.443848 -4.111918 0
-32.488297 80.468811 -3.644786 0
26.126209 84.230789 -3.801875 0
12.382342 94.870956 -2.971639 0
8.266629 98.592888 -1.104797 0
8.402339 -93.983391 -4.338494 0
56.851429 -58.867451 -4.206911 0
76.983505 -27.874146 -4.217659 0
-79.315071 2.578572 -4.311872 0
76.847382 1.422758 -4.077865 0
76.547226 15.430542 -4.197111 0
72.463165 37.654930 -4.274484 0
-66.152107 53.630299 -4.166685 0
64.798462 56.929855 -4.294483 0
-63.452183 57.090084 -4.106437 0
51.338428 73.140236 -4.274189 0
-47.175854 76.332748 -4.199070 0
48.437340 76.244194 -4.337148 0
-6.492127 105.542625 0.920700 0
-12.447757 -89.822327 -4.135046 0
13.956062 -91.688919 -4.267223 0
18.991701 -89.986443 -4.246248 0
40.810642 -77.436241 -4.225176 0
-41.877640 -75.731468 -4.210024 0
-50.164207 -66.212822 -4.153870 0
-57.732380 -58.891190 -4.281165 0
77.764519 -23.387924 -4.103104 0
-76.586487 -23.820568 -4.133516 0
83.094994 -20.176748 -4.328351 0
80.223175 -10.812455 -4.224597 0
-74.538239 23.383213 -4.114054 0
67.874596 46.489967 -4.162501 0
-68.818565 49.482208 -4.237736 0
-60.077290 61.856098 -4.098542 0
-56.743927 65.631500 -4.077378 0
54.827278 68.503059 -4.197516 0
39.179871 78.009911 -3.962144 0
32.486031 80.350006 -3.762873 0
-1.779534 -92.595085 -4.222655 0
-8.255378 -92.357903 -4.244753 0
-18.194822 -89.446358 -4.208507 0
-23.432213 -87.666565 -4.215952 0
29.137747 -86.204697 -4.277512 0
34.062393 -83.461380 -4.285831 0
-46.496048 -70.829842 -4.182213 0
49.891773 -66.558929 -4.129201 0
59.841621 -52.985344 -4.146750 0
67.442245 -39.012207 -4.097343 0
71.710739 -32.378136 -4.088369 0
-79.876793 -13.189752 -4.209535 0
81.497307 -15.547926 -4.263410 0
-78.676552 -10.347799 -4.139269 0
-78.814156 -5.985488 -4.176772 0
78.521942 -9.145067 -4.118072 0
-76.672836 7.554846 -4.107242 0
-75.714394 14.733058 -4.090841 0
72.294098 23.782953 -3.944139 0
72.707001 30.743074 -4.134262 0
-72.373161 34.139370 -4.139255 0
-70.254150 39.531036 -4.086681 0
64.665359 51.080536 -4.079024 0
44.545067 77.017395 -4.197476 0
-26.886686 81.804222 -3.176498 0
-20.187437 86.826286 -2.963831 0
-15.942486 89.845253 -2.503868 0
4.095283 100.976852 1.400301 0
-5.437249 -90.045242 -4.077801 0
-29.727739 -82.814278 -4.112844 0
-37.186527 -79.254845 -4.194086 0
46.966015 -70.801498 -4.175937 0
53.161762 -62.374474 -4.126874 0
-70.776756 -32.587128 -4.093561 0
-73.500443 -27.831173 -4.081690 0
78.141930 -12.766709 -4.059275 0
77.506187 -7.176517 -4.055079 0
-77.590881 -1.243206 -4.115939 0
76.247093 7.103055 -4.075622 0
75.618820 11.533677 -4.062880 0
-67.564857 44.435284 -3.992203 0
-38.338894 77.498604 -3.752954 0
27.746920 81.565025 -3.469057 0
-5.701164 99.571724 0.695335 0
20.601517 -86.378174 -4.058705 0
35.781013 -79.168549 -4.109858 0
43.200542 -72.705200 -4.081480 0
-59.016148 -53.852856 -4.140621 0
56.156750 -54.807449 -3.959445 0
62.077168 -47.551014 -4.060337 0
-76.971992 -14.594301 -4.009594 0
-77.136543 -7.235969 -4.032764 0
76.775284 -9.524862 -3.976177 0
-73.639198 29.217688 -4.145070 0
69.092827 41.386627 -4.104779 0
-59.248550 58.975590 -3.901896 0
-50.001034 70.433533 -3.932768 0
-46.224976 72.881531 -3.855075 0
-22.520208 84.109337 -2.884411 0
23.379400 83.338898 -3.183241 0
14.046474 90.112198 -2.515815 0
18.436190 86.397491 -2.842473 0
9.007288 93.364357 -1.425166 0
-2.400681 105.486870 4.653898 0
1.997649 105.450050 4.784727 0
-26.783739 -85.232193 -4.162519 0
26.095312 -84.549126 -4.089156 0
-53.442936 -62.271980 -4.160846 0
-62.763729 -45.871323 -4.058347 0
-65.271561 -40.805351 -4.031356 0
72.903923 -27.578163 -3.944344 0
78.732407 -15.807065 -4.092364 0
60.538628 59.953495 -4.145848 0
49.541321 70.057434 -3.982746 0
-42.801453 75.609818 -3.865538 0
10.819453 -89.750542 -4.107215 0
15.670422 -88.490028 -4.099072 0
31.045420 -82.469902 -4.128516 0
39.361469 -74.926857 -4.022866 0
53.821270 -58.446869 -3.974780 0
-60.509998 -49.743732 -4.058883 0
-74.878601 -21.388018 -3.960506 0
76.243973 -15.706119 -3.929643 0
78.722061 -19.041410 -4.099409 0
-76.237091 -9.503206 -3.957100 0
74.069824 -1.216905 -3.790274 0
-77.077614 2.970883 -4.104952 0
56.407833 62.667866 -4.000944 0
47.209435 73.433746 -4.075284 0
-17.461662 85.981262 -2.223219 0
-12.847762 90.461502 -1.756038 0
-8.240980 94.102325 -0.707145 0
-0.287758 99.108765 1.747533 0
0.728008 -89.910118 -4.049225 0
5.640968 -90.734612 -4.119722 0
-43.530025 -70.774269 -4.024191 0
-46.177265 -66.277367 -3.922442 0
50.897545 -61.223904 -3.920039 0
67.176025 -36.206799 -3.915484 0
73.981033 14.951169 -3.955006 0
74.189476 18.990910 -4.034348 0
69.820442 35.985004 -4.016806 0
60.405582 55.975574 -3.966743 0
-55.108452 61.387913 -3.733209 0
-52.172382 66.461914 -3.825924 0
28.201670 78.927460 -3.136682 0
-22.498499 81.615395 -2.504526 0
19.502640 83.775848 -2.633893 0
4.324659 95.671295 0.053834 0
-16.417185 -87.214088 -4.033406 0
-20.053007 -85.190430 -3.979543 0
-40.425980 -72.602608 -3.967257 0
45.014187 -67.219650 -3.879537 0
-50.074116 -61.719635 -3.915696 0
48.341595 -64.306107 -3.920711 0
51.849949 -55.881023 -3.699631 0
55.091145 -52.526501 -3.761288 0
63.166245 -41.273735 -3.836246 0
-75.690918 -18.473257 -3.958189 0
-73.863922 -16.676249 -3.815391 0
-75.031281 -3.856712 -3.875166 0
75.724945 -6.015711 -3.912084 0
-74.843956 2.621352 -3.894893 0
70.799469 28.213085 -3.907010 0
-71.346405 29.044609 -3.935347 0
61.434643 50.688843 -3.820312 0
51.116589 65.337402 -3.787435 0
43.468960 73.316467 -3.837354 0
-40.056820 72.760674 -3.398724 0
-34.396702 76.578461 -3.298858 0
33.889980 76.798759 -3.429451 0
-30.227886 78.957832 -3.168588 0
-26.818283 79.815933 -2.866004 0
-3.652915 94.491089 0.249423 0
-8.927154 -87.927536 -3.967453 0
-37.353371 -75.665741 -3.998720 0
-53.802830 -58.779785 -4.009573 0
-55.850056 -55.259960 -3.975567 0
58.154785 -49.726593 -3.853115 0
-67.408981 -35.056969 -3.941795 0
-69.510880 -29.829590 -3.876196 0
69.245850 -32.162682 -3.879319 0
-71.779327 -24.686321 -3.850746 0
74.933815 -11.042192 -3.826787 0
-73.938858 8.553548 -3.856766 0
74.149773 4.737011 -3.850607 0
-72.848640 19.383951 -3.890696 0
69.121147 31.769567 -3.844250 0
65.047974 44.095024 -3.860268 0
-65.355240 48.770245 -3.945436 0
-61.740768 51.534683 -3.757877 0
-46.550198 68.898216 -3.589115 0
15.313990 86.324966 -2.260222 0
-10.213531 90.287895 -1.136735 0
8.853679 -87.054359 -3.904430 0
-11.409052 -86.062393 -3.870867 0
13.823369 -85.672928 -3.881711 0
-24.403982 -82.723320 -3.937901 0
-28.341232 -79.540131 -3.864018 0
-32.901741 -78.856079 -3.993737 0
30.200253 -79.615318 -3.923103 0
36.704113 -74.433899 -3.869406 0
40.096752 -70.608833 -3.806269 0
-57.887932 -51.264526 -3.930844 0
60.527672 -45.725330 -3.840980 0
72.068161 -23.632633 -3.751395 0
74.385391 -19.624214 -3.832680 0
-74.156250 -10.144884 -3.795918 0
72.651344 10.931527 -3.774951 0
71.644653 18.252632 -3.785172 0
-70.823074 24.432608 -3.788233 0
-69.170410 34.345379 -3.859309 0
66.712997 39.460342 -3.849959 0
-67.011978 39.583805 -3.806685 0
63.056755 47.577274 -3.823765 0
22.967970 80.914719 -2.758286 0
10.630828 88.512169 -1.618762 0
8.335681 90.697281 -1.239329 0
-7.275659 89.926346 -0.667184 0
0.889002 91.565605 0.031126 0
-2.854151 -86.953728 -3.853061 0
-15.530563 -84.249054 -3.815207 0
-61.535400 -41.508945 -3.748947 0
-72.843468 12.070700 -3.785609 0
-71.268761 15.273284 -3.673114 0
66.857094 35.706738 -3.751195 0
-58.486309 55.781345 -3.692104 0
-50.255066 64.380661 -3.558592 0
46.635582 68.811172 -3.712914 0
-28.281227 76.980995 -2.713010 0
17.436291 82.386444 -2.192779 0
-17.360247 82.913834 -1.926778 0
-12.892641 86.621010 -1.497095 0
5.368659 90.215523 -0.676331 0
17.957405 -83.907356 -3.837712 0
-41.825211 -68.478386 -3.801478 0
-58.999954 -46.697571 -3.792960 0
-64.366684 -37.045891 -3.779362 0
-67.946632 -27.313778 -3.656550 0
73.747910 -14.649122 -3.745975 0
73.572044 -6.851456 -3.723502 0
-70.183517 20.325623 -3.648764 0
68.683235 26.877686 -3.681365 0
-63.463299 44.527740 -3.645298 0
-33.410614 74.237923 -2.948925 0
-20.938873 79.759872 -2.138510 0
-3.151217 89.747169 -0.299185 0
4.744161 -86.620415 -3.837117 0
-7.009100 -85.174065 -3.755031 0
20.788578 -81.225632 -3.719273 0
23.359451 -82.962105 -3.909513 0
33.405140 -76.175377 -3.830502 0
41.635620 -66.253082 -3.623458 0
47.946365 -61.354404 -3.735662 0
54.517395 -49.575504 -3.555931 0
68.414520 -30.310143 -3.728563 0
-71.137306 -19.745378 -3.672728 0
-72.200401 -14.073347 -3.665257 0
71.680161 -10.628966 -3.559950 0
-70.279106 9.398050 -3.506154 0
65.933914 32.344036 -3.570183 0
-68.203583 29.169598 -3.640531 0
-65.919319 34.404037 -3.556451 0
-64.733078 39.368542 -3.592970 0
56.589878 58.620731 -3.814077 0
-42.871204 68.318481 -3.263496 0
38.467815 73.274940 -3.467042 0
-24.058891 78.453484 -2.390176 0
29.502949 74.942001 -2.840063 0
13.545442 84.945213 -1.855253 0
25.988983 -79.591881 -3.769475 0
-37.816120 -71.495224 -3.771375 0
-43.146633 -64.146065 -3.614189 0
-52.063469 -55.836258 -3.733433 0
-55.364033 -51.346134 -3.742373 0
58.445522 -44.799675 -3.619711 0
65.320137 -34.732674 -3.688548 0
-72.340637 0.679521 -3.647643 0
71.378403 5.356617 -3.581561 0
-72.042732 5.168484 -3.644994 0
60.843250 45.027969 -3.542697 0
-46.412750 64.860291 -3.292916 0
21.318588 80.072136 -2.455404 0
34.090275 73.866371 -3.153971 0
24.660299 77.503258 -2.597755 0
-13.612605 82.480331 -1.465278 0
-19.899599 -81.060318 -3.695596 0
16.461164 -81.578255 -3.638935 0
34.961349 -71.646736 -3.609131 0
-46.409000 -62.127174 -3.697063 0
44.369473 -62.244354 -3.548723 0
48.172546 -57.653858 -3.535821 0
59.264469 -39.703686 -3.418188 0
62.459301 -37.694721 -3.592400 0
-65.582947 -31.728472 -3.644297 0
69.149422 -27.073761 -3.653371 0
71.066902 1.365633 -3.515346 0
67.855347 21.174789 -3.465209 0
63.357204 38.767826 -3.532996 0
58.747505 52.733372 -3.697690 0
55.869144 55.457443 -3.602439 0
53.189320 60.339809 -3.651897 0
42.670628 70.006531 -3.517949 0
-34.809479 71.329872 -2.818847 0
-9.755436 85.791473 -1.080069 0
-5.771427 86.408875 -0.722399 0
0.755182 -85.905472 -3.772056 0
-11.797527 -83.085670 -3.665318 0
-34.247276 -74.592171 -3.791390 0
38.067154 -67.912544 -3.523476 0
-62.108616 -35.851143 -3.529868 0
-68.376205 -23.500240 -3.560747 0
69.750092 -20.281258 -3.507905 0
71.537125 -5.387062 -3.541534 0
-68.425888 18.327827 -3.437545 0
-54.296387 56.876621 -3.422268 0
-50.550854 60.527149 -3.335619 0
45.465309 65.722649 -3.407287 0
-39.018272 69.102074 -3.004236 0
34.631050 70.646431 -2.914185 0
-23.358419 76.019325 -2.129511 0
3.153080 -82.894600 -3.556097 0
8.786125 -83.105507 -3.618607 0
12.966678 -82.718307 -3.654072 0
-24.619848 -78.385262 -3.654645 0
-29.940386 -75.285515 -3.645932 0
30.081957 -75.206779 -3.626793 0
-48.498791 -59.162144 -3.666007 0
-52.718613 -50.622921 -3.495538 0
-64.794563 -26.476505 -3.369852 0
71.720978 -16.399681 -3.605116 0
69.845222 -1.848710 -3.380931 0
-72.002800 -3.370314 -3.607739 0
66.088570 27.602654 -3.451838 0
59.608704 49.298813 -3.616975 0
-56.280445 51.571030 -3.308986 0
49.160450 61.581551 -3.418229 0
39.958397 68.529747 -3.188606 0
-18.423244 79.249611 -1.823974 0
-28.556309 73.773079 -2.456376 0
10.603176 85.047028 -1.468746 0
3.612597 84.559669 -0.710215 0
-1.103369 85.548882 -0.543854 0
-38.999432 -67.335915 -3.572623 0
49.997166 -52.477661 -3.358352 0
-55.741203 -47.308449 -3.558064 0
55.668976 -43.962353 -3.334558 0
-57.673069 -43.152443 -3.501319 0
62.186337 -34.372715 -3.406444 0
-69.131454 -16.399534 -3.457131 0
-72.551056 -6.676581 -3.657111 0
-67.507019 23.763552 -3.448526 0
-64.994637 28.919298 -3.312735 0
-60.026375 47.559044 -3.457090 0
-42.018665 65.131775 -2.949241 0
19.975594 79.329659 -2.233653 0
7.367156 86.416245 -1.076198 0
-2.260031 -83.068924 -3.566012 0
-15.051515 -79.657112 -3.466841 0
18.282415 -77.637062 -3.385801 0
-34.479652 -70.812805 -3.558055 0
39.548023 -63.636768 -3.324924 0
45.975502 -57.004776 -3.333918 0
-59.383362 -38.915901 -3.436227 0
-62.575752 -31.425772 -3.373577 0
65.504082 -30.179720 -3.496422 0
66.547188 -25.039070 -3.382278 0
-66.193230 -20.528168 -3.298311 0
-71.305733 -9.845932 -3.560769 0
-69.092850 3.877585 -3.348826 0
70.277519 16.097834 -3.617015 0
62.982555 31.834064 -3.262994 0
-63.164486 33.902813 -3.267903 0
-62.569866 38.754360 -3.365479 0
-45.649353 61.904072 -3.021975 0
-38.688622 66.428658 -2.764106 0
-35.732887 67.660378 -2.605926 0
-9.373857 82.755089 -1.083480 0
-6.081768 -82.207115 -3.523025 0
22.633627 -77.764977 -3.527565 0
42.642265 -59.923328 -3.281765 0
-48.645378 -56.781975 -3.539536 0
52.794350 -47.679321 -3.301361 0
68.887947 -7.519056 -3.293955 0
-69.591057 -6.056291 -3.394971 0
-70.096207 -1.099386 -3.434978 0
68.521683 3.569109 -3.272841 0
70.257057 9.776795 -3.518455 0
57.241318 49.633060 -3.436063 0
51.447788 56.763931 -3.316093 0
-15.715884 79.147415 -1.559858 0
29.830017 71.576828 -2.568490 0
-5.372366 83.429916 -0.816251 0
6.427018 -79.954826 -3.338935 0
13.380098 -79.956238 -3.451660 0
-20.525143 -76.697502 -3.387327 0
26.076479 -75.781044 -3.504667 0
34.900768 -66.858109 -3.270538 0
-44.904297 -58.498333 -3.375315 0
-49.283436 -53.894001 -3.417187 0
-53.856960 -45.008286 -3.274065 0
70.316940 -13.773000 -3.464405 0
-68.648560 -11.393831 -3.345860 0
67.926636 8.861488 -3.264662 0
-67.943329 13.856693 -3.318699 0
62.490883 35.367363 -3.329869 0
-59.726074 42.325840 -3.216967 0
54.322918 52.984970 -3.353314 0
-37.641621 64.001045 -2.488725 0
-32.550114 68.984245 -2.432243 0
13.332123 82.280579 -1.678027 0
16.650858 79.545090 -1.885630 0
-30.732681 71.089676 -2.437152 0
20.576807 77.215012 -2.136467 0
-9.649818 -80.992218 -3.471712 0
-40.517944 -62.822376 -3.364839 0
69.080559 -16.231886 -3.386765 0
68.478775 -12.288802 -3.290285 0
68.928932 14.000852 -3.444888 0
-50.753662 55.532295 -3.046652 0
-48.118126 59.034100 -3.038435 0
-18.600889 75.862976 -1.681619 0
23.354691 74.565483 -2.214228 0
26.945982 73.057884 -2.430191 0
8.836397 82.731400 -1.195564 0
-12.630043 79.001091 -1.310488 0
-7.705133 80.249306 -1.006266 0
10.113313 -78.518692 -3.268400 0
-25.033127 -74.650894 -3.393573 0
-28.185305 -72.845543 -3.391041 0
31.679409 -70.733543 -3.381681 0
-36.632004 -65.901421 -3.334689 0
-56.277905 -39.627285 -3.195934 0
52.297714 -44.001781 -3.036869 0
-59.117924 -34.541729 -3.201283 0
62.401714 -29.986128 -3.224323 0
66.599274 -20.858130 -3.267573 0
66.644943 0.438791 -3.057697 0
-68.173309 10.489853 -3.300782 0
64.386993 26.452316 -3.245008 0
-60.079178 35.996666 -3.018104 0
56.492096 45.149353 -3.156223 0
54.606098 49.367111 -3.192486 0
45.430309 61.946609 -3.145854 0
-41.841759 61.923489 -2.697774 0
-27.640064 71.615028 -2.205813 0
25.501610 70.809212 -2.114379 0
-23.584435 72.147285 -1.892466 0
-3.522992 81.399193 -0.788117 0
-0.337524 -79.617233 -3.282959 0
27.830580 -72.192223 -3.310240 0
-33.776947 -68.149055 -3.329472 0
43.362614 -56.252243 -3.085730 0
-50.481674 -49.388096 -3.242981 0
55.485725 -39.501335 -3.066039 0
58.881138 -34.814564 -3.133704 0
-61.014290 -28.802162 -3.120492 0
-66.758644 -15.307738 -3.236756 0
-67.883415 -1.589006 -3.223152 0
-66.297470 8.214874 -3.083188 0
-65.677475 18.703674 -3.157364 0
-61.804359 31.052620 -3.037267 0
61.132889 35.500347 -3.198838 0
59.509438 41.635006 -3.282477 0
-57.693501 46.506550 -3.199823 0
-44.950611 58.671555 -2.740252 0
-32.429070 66.096069 -2.199417 0
30.359808 68.837074 -2.387559 0
-28.654119 69.239220 -2.113391 0
-0.193038 79.720879 -0.760166 0
3.194335 -79.960823 -3.316747 0
-5.509151 -79.353455 -3.288311 0
-16.933035 -76.409637 -3.250896 0
-30.857792 -70.352829 -3.335015 0
46.686523 -53.157566 -3.137053 0
50.557667 -48.234615 -3.142034 0
67.368217 -3.708179 -3.129687 0
66.202896 15.028091 -3.170082 0
59.750481 38.067451 -3.159800 0
-51.982025 51.331753 -2.908384 0
52.087570 52.333904 -3.126118 0
47.401531 58.069668 -3.056919 0
41.739826 64.215744 -3.003345 0
37.658375 66.336937 -2.823011 0
33.905899 67.361122 -2.579336 0
17.527699 76.235329 -1.765284 0
13.764591 -76.857948 -3.205022 0
23.134644 -74.073128 -3.265368 0
40.000931 -59.282879 -3.048960 0
66.237427 -16.614210 -3.145323 0
-66.650528 -6.982662 -3.123527 0
65.305260 5.361371 -2.940315 0
-66.016365 2.586928 -3.029692 0
-64.661957 23.848768 -3.153156 0
63.624046 23.571772 -3.078398 0
61.196205 28.520676 -2.968207 0
-55.266304 44.437851 -2.867080 0
-54.143902 48.720726 -2.968791 0
49.031822 53.498417 -2.920995 0
12.720613 79.722054 -1.486403 0
-9.636690 77.377754 -1.108220 0
8.254295 79.248108 -1.080631 0
3.899306 -77.228111 -3.086094 0
-10.482147 -77.582329 -3.201799 0
-22.513227 -71.881943 -3.068463 0
-26.650414 -70.764595 -3.161006 0
-37.158695 -61.999748 -3.083768 0
36.442116 -62.068310 -3.005858 0
-41.291016 -59.187187 -3.165632 0
47.815804 -48.473419 -2.919988 0
-50.735344 -45.093372 -3.000711 0
-62.206444 -23.719887 -3.034405 0
-65.150185 -11.742735 -3.027997 0
65.326172 10.089371 -2.995272 0
-65.135460 13.230626 -3.010885 0
64.306740 19.278439 -3.041450 0
-57.389492 39.681252 -2.876162 0
-4.963399 77.928032 -0.892600 0
7.448408 -76.354828 -3.043682 0
-14.057726 -75.229973 -3.070465 0
-18.083454 -73.523743 -3.042386 0
19.472717 -74.002968 -3.126471 0
30.143816 -67.730812 -3.075183 0
-33.173275 -65.456345 -3.094662 0
41.029560 -54.850998 -2.805293 0
-46.680069 -53.198181 -3.168489 0
-48.308636 -49.011375 -3.033495 0
-52.934002 -40.906368 -2.956253 0
58.903847 -29.880415 -2.898079 0
62.334686 -26.092260 -3.056953 0
66.027489 -10.963392 -3.041241 0
66.003006 -6.875403 -3.000409 0
58.662918 33.849525 -2.888883 0
56.673935 39.937229 -2.937407 0
43.168957 59.859051 -2.814847 0
-39.434147 59.944683 -2.343120 0
-14.108282 75.390991 -1.329039 0
-16.983385 74.558159 -1.500414 0
3.996919 79.027237 -0.847469 0
-3.003791 -76.979660 -3.062104 0
25.774868 -69.900108 -3.036446 0
-43.024319 -54.605820 -2.968332 0
44.602997 -52.611465 -2.933423 0
49.878208 -44.103882 -2.820539 0
51.344692 -39.910507 -2.693557 0
-55.330200 -35.491001 -2.887918 0
-57.916893 -31.180576 -2.927922 0
63.665112 -21.702492 -3.031343 0
-62.547302 -19.276033 -2.929255 0
-62.277695 10.643285 -2.655659 0
-62.105068 26.559248 -2.941168 0
52.297359 48.229996 -2.923326 0
45.132915 55.520977 -2.697010 0
-46.475353 55.408562 -2.654240 0
-18.240765 72.420868 -1.497029 0
13.082091 77.491898 -1.423327 0
-7.133789 -75.616653 -2.972668 0
11.064317 -74.077934 -2.904468 0
15.776248 -74.305260 -3.037820 0
21.736372 -71.002777 -2.953957 0
-29.364836 -67.753670 -3.058415 0
33.219688 -63.971722 -2.948239 0
55.425594 -35.043198 -2.816260 0
-64.368286 -16.260056 -3.032398 0
-63.347534 -8.121346 -2.802246 0
64.743484 -3.277397 -2.853358 0
-65.703026 -1.974384 -3.000864 0
-63.227993 16.148064 -2.842731 0
-62.605793 21.165073 -2.868016 0
-48.349190 52.575294 -2.644016 0
38.917076 62.015331 -2.600289 0
35.403141 64.494812 -2.482262 0
-34.737617 62.363560 -2.112715 0
31.582083 65.301926 -2.212498 0
19.879255 72.598862 -1.752087 0
-21.653845 69.214996 -1.552781 0
1.131259 -75.909996 -2.957862 0
-39.510368 -58.171562 -2.963186 0
47.879341 -43.821350 -2.612805 0
-59.115700 -21.025930 -2.634315 0
63.165455 -17.366449 -2.867046 0
63.651707 -13.305121 -2.833800 0
-64.615723 -4.572869 -2.900956 0
63.770569 1.100660 -2.745748 0
-63.668701 5.211654 -2.780168 0
63.656696 12.748393 -2.843931 0
62.969509 16.137897 -2.825523 0
60.282185 24.371021 -2.731886 0
-59.076229 30.071884 -2.705523 0
53.209423 43.773926 -2.773189 0
-42.960968 56.820854 -2.433332 0
27.598022 66.899521 -1.992774 0
-26.642338 67.376350 -1.809379 0
14.038473 74.881287 -1.392651 0
-12.867226 72.236702 -1.149207 0
-11.166455 74.957275 -1.141773 0
-7.854947 75.124252 -0.987107 0
23.399748 -68.125801 -2.775847 0
-30.114223 -64.508217 -2.837110 0
59.695248 -24.167479 -2.732440 0
-61.633663 -14.169653 -2.718039 0
-63.104664 -0.558144 -2.717863 0
62.672668 9.014416 -2.678613 0
62.026268 21.447128 -2.841761 0
58.135517 28.670126 -2.633267 0
-57.242622 35.177830 -2.680874 0
-52.264652 47.259487 -2.710845 0
-49.730759 49.027710 -2.562676 0
49.443703 49.695724 -2.735985 0
46.663956 50.715984 -2.533486 0
40.927982 57.570568 -2.455635 0
34.183163 62.107628 -2.190478 0
9.992599 75.709602 -1.128454 0
6.718426 75.165253 -0.933865 0
-3.349169 74.337715 -0.811385 0
-10.622307 -73.630714 -2.848835 0
5.248134 -73.191704 -2.730256 0
18.316282 -71.578224 -2.876960 0
-25.798727 -67.492645 -2.848882 0
27.039494 -65.833237 -2.752521 0
-33.716919 -61.471684 -2.810824 0
37.556812 -58.178509 -2.789635 0
-45.567947 -50.250645 -2.877460 0
44.030304 -50.463596 -2.733500 0
-47.990742 -46.332840 -2.830875 0
-58.767200 -26.418152 -2.802071 0
63.210491 -7.923021 -2.713219 0
-54.499153 39.069969 -2.538253 0
23.201704 68.806404 -1.764649 0
-17.198509 69.923470 -1.289742 0
-4.587040 -74.299492 -2.822443 0
30.591825 -63.654423 -2.765379 0
33.526958 -59.404415 -2.596289 0
-48.935635 -42.123657 -2.646782 0
-51.986374 -37.964108 -2.694542 0
61.073929 -19.888754 -2.726025 0
61.887650 4.902303 -2.547337 0
53.592911 40.483818 -2.647006 0
-44.064892 53.386070 -2.297487 0
43.040237 53.379124 -2.360153 0
37.129356 59.624805 -2.262092 0
-30.497957 64.151306 -1.886417 0
15.615088 71.567093 -1.352668 0
-1.578680 -74.690170 -2.845172 0
-14.722132 -70.896599 -2.696438 0
15.298321 -70.925705 -2.721078 0
-19.127831 -70.589790 -2.821947 0
44.820129 -46.567150 -2.520112 0
-55.428631 -30.206053 -2.627063 0
60.505318 -15.535434 -2.548502 0
61.643505 -11.384223 -2.587044 0
60.178135 18.922678 -2.566970 0
-60.695286 17.431450 -2.569695 0
-59.776081 24.208233 -2.615239 0
55.569901 32.949276 -2.511887 0
54.735947 36.997967 -2.602937 0
-52.717522 42.006290 -2.482772 0
-50.318371 44.465313 -2.361496 0
49.773045 46.136009 -2.562924 0
-40.419319 55.974266 -2.141669 0
-37.917538 57.788403 -2.046310 0
-35.013115 59.072231 -1.885471 0
29.654610 62.577942 -1.833725 0
11.096257 72.868240 -1.108447 0
1.869259 74.942520 -0.789417 0
-36.520164 -58.617897 -2.775779 0
-39.539211 -55.771118 -2.782094 0
-43.152321 -49.515263 -2.612849 0
41.277260 -51.080963 -2.542492 0
52.391506 -36.205029 -2.574279 0
55.643578 -30.812420 -2.614027 0
56.918499 -27.128918 -2.570473 0
62.165627 -2.916201 -2.563598 0
-61.847229 -4.920029 -2.601676 0
-60.918880 4.048658 -2.453735 0
-31.607965 60.900280 -1.730889 0
-27.507275 63.287613 -1.573854 0
-23.565649 65.897400 -1.464192 0
19.190496 69.702171 -1.507415 0
0.785656 -72.926109 -2.677529 0
-6.618953 -71.339478 -2.556762 0
9.402544 -71.324043 -2.609532 0
-21.974443 -67.883347 -2.694122 0
22.987186 -65.599617 -2.527369 0
37.687534 -54.881645 -2.540601 0
-45.954693 -46.264404 -2.638961 0
46.602131 -40.666229 -2.267823 0
49.741501 -36.610867 -2.324653 0
-52.729893 -33.603405 -2.521133 0
52.904533 -32.971237 -2.442839 0
-56.057583 -25.670332 -2.482978 0
58.467018 -19.797396 -2.451517 0
60.748848 -5.573360 -2.411962 0
-60.580879 -8.617160 -2.496871 0
61.103630 0.690809 -2.437437 0
60.944485 13.446676 -2.543680 0
-58.599724 20.703875 -2.378367 0
-56.168312 31.462128 -2.413939 0
-54.752426 34.761257 -2.379068 0
50.115295 41.204769 -2.321366 0
-46.407726 50.157261 -2.308974 0
39.764389 54.598866 -2.133540 0
33.705704 58.888462 -1.900547 0
-19.066393 66.771240 -1.210584 0
-14.124467 68.818436 -1.041806 0
-8.177788 72.991501 -0.949974 0
-10.746469 -70.629341 -2.564084 0
19.350346 -68.244949 -2.613028 0
-27.521671 -63.634670 -2.605797 0
25.975471 -63.090950 -2.446921 0
29.147131 -61.384338 -2.479572 0
-31.063206 -60.851456 -2.583858 0
-37.299973 -55.420746 -2.580527 0
-40.370018 -52.683346 -2.610693 0
-58.812656 -16.345633 -2.453646 0
-48.197556 47.448238 -2.318608 0
46.727634 46.072746 -2.252126 0
37.432896 56.914322 -2.086273 0
-8.628686 70.551468 -0.871766 0
5.245553 72.517029 -0.810697 0
-0.233370 71.531494 -0.710788 0
-2.953220 -72.767822 -2.668263 0
-24.142414 -64.412720 -2.483753 0
-33.870579 -56.977127 -2.447225 0
38.668137 -51.209835 -2.321102 0
59.660557 -8.727792 -2.318006 0
59.581059 8.968064 -2.312619 0
57.588207 23.601501 -2.392437 0
-57.607704 23.613588 -2.330577 0
-56.179386 27.168747 -2.263624 0
55.694645 29.898413 -2.396755 0
52.286823 37.718300 -2.372532 0
-40.340534 53.016533 -1.921689 0
-36.644127 55.873703 -1.790747 0
25.186954 65.095436 -1.652683 0
20.975353 66.902359 -1.452471 0
8.533050 70.332794 -0.859178 0
12.475307 -70.085693 -2.558604 0
34.945824 -55.615601 -2.378353 0
41.093739 -48.017033 -2.283679 0
-49.659706 -37.448898 -2.426154 0
56.139000 -23.396652 -2.328364 0
-56.639786 -19.001450 -2.278743 0
-58.714695 -12.050469 -2.331227 0
59.908844 -11.952394 -2.402696 0
58.896362 -2.394943 -2.178180 0
-60.152103 -2.689255 -2.380704 0
56.933720 19.396099 -2.184446 0
52.009102 34.952358 -2.202317 0
-50.573513 39.691193 -2.135100 0
44.069363 49.648510 -2.210521 0
40.739334 51.366974 -1.999169 0
-43.224007 50.236591 -2.005303 0
16.426254 68.082413 -1.202938 0
12.744156 70.001236 -1.076668 0
1.199034 -70.076607 -2.391827 0
7.519686 -70.254562 -2.469274 0
-18.408646 -68.123482 -2.565982 0
15.619504 -67.051834 -2.356962 0
35.788475 -52.525417 -2.180607 0
-52.412521 -28.678066 -2.217335 0
-54.684658 -22.649687 -2.190821 0
58.148155 14.848664 -2.229771 0
55.465755 27.123716 -2.260293 0
-31.687075 56.902061 -1.428832 0
29.807014 58.754108 -1.542927 0
-4.162998 69.726051 -0.687458 0
19.758459 -64.462944 -2.263674 0
23.453863 -62.808292 -2.284347 0
-28.764189 -60.920788 -2.437738 0
-37.169643 -52.782097 -2.355820 0
43.296722 -44.513840 -2.220932 0
-44.585724 -43.984016 -2.345444 0
-46.704891 -40.256332 -2.298696 0
53.713421 -28.362051 -2.287160 0
57.765583 -15.751409 -2.250995 0
-56.600624 -15.420653 -2.159116 0
-59.252983 8.862617 -2.259366 0
-58.958698 13.734861 -2.280100 0
-56.081692 21.564590 -2.080338 0
53.427528 30.817736 -2.171506 0
-53.142315 31.648199 -2.060072 0
36.452122 53.956745 -1.773702 0
-29.104895 60.116905 -1.461288 0
25.618692 61.670467 -1.425406 0
-24.924932 62.973042 -1.346480 0
22.262434 63.971989 -1.336272 0
-22.330198 63.395164 -1.187529 0
19.043724 65.213303 -1.186639 0
-2.208382 -71.047913 -2.495408 0
5.280308 -69.097252 -2.318738 0
-11.774100 -67.451897 -2.268226 0
-29.939503 -58.299438 -2.280335 0
-40.096004 -49.405441 -2.332534 0
-42.218128 -46.848377 -2.327446 0
55.875340 -18.245089 -2.109046 0
59.008938 2.864411 -2.193153 0
-58.827999 0.769598 -2.187184 0
-52.563480 36.180279 -2.189446 0
45.569454 43.137142 -1.942670 0
42.780869 47.082142 -1.907922 0
-46.147228 46.518692 -2.056613 0
-37.338478 52.923313 -1.631702 0
-34.848465 54.585609 -1.528223 0
-15.734116 65.251579 -0.898292 0
12.272552 67.234024 -0.892291 0
4.046883 69.590073 -0.676626 0
-8.809370 -68.917953 -2.347345 0
-16.098671 -66.821747 -2.348553 0
-26.561699 -60.804489 -2.287889 0
26.238691 -59.708664 -2.141041 0
37.485954 -49.102169 -2.038548 0
-47.258663 -36.583958 -2.115224 0
47.078156 -35.557961 -1.964800 0
50.421089 -32.213234 -2.130748 0
57.927990 -11.757909 -2.173999 0
58.665783 -5.947442 -2.169909 0
57.961792 5.941236 -2.076340 0
-57.823135 17.752964 -2.208946 0
47.564613 39.789688 -1.955438 0
-39.170959 49.969685 -1.589537 0
33.124905 56.420330 -1.653464 0
-19.315802 63.697403 -1.003505 0
-11.804388 67.446075 -0.837424 0
10.407637 -67.597816 -2.255412 0
-20.348614 -64.653114 -2.314609 0
-31.419626 -55.242897 -2.108774 0
30.074083 -57.742233 -2.205936 0
32.833691 -54.960644 -2.153906 0
40.010269 -45.854622 -2.005141 0
-50.222553 -33.430500 -2.242240 0
-57.945145 -7.648682 -2.154662 0
55.170742 17.457687 -1.910324 0
55.412743 22.043144 -2.071421 0
52.747181 27.540749 -1.948456 0
48.949181 36.784546 -1.942890 0
-47.219143 42.313568 -1.910797 0
-25.890909 59.689236 -1.171188 0
16.089573 65.193298 -0.986608 0
-3.345493 -68.838295 -2.269502 0
-34.512375 -52.521992 -2.109942 0
33.717083 -50.416241 -1.816131 0
-37.569508 -49.306416 -2.099994 0
-56.886669 -13.085491 -2.126287 0
56.030785 -7.207378 -1.866602 0
54.017544 24.432396 -1.981448 0
45.620712 40.124386 -1.756257 0
-41.667713 49.234070 -1.780428 0
-8.439984 67.404427 -0.690402 0
-23.584755 -61.070847 -2.134783 0
22.756330 -60.878098 -2.054047 0
30.340763 -53.689148 -1.844606 0
-40.787426 -44.787582 -2.031952 0
42.587559 -42.171173 -1.965443 0
-51.956730 -25.026640 -1.969479 0
54.106964 -20.750769 -1.988285 0
-54.159302 -17.597044 -1.926494 0
56.408966 -0.826767 -1.861616 0
-57.753857 4.742767 -2.036108 0
56.520168 7.939739 -1.907711 0
57.004791 11.395073 -2.018928 0
55.071335 14.269794 -1.821904 0
-55.228367 16.595026 -1.840054 0
-53.786243 24.287550 -1.860629 0
50.697670 30.343721 -1.825078 0
-44.165985 44.977356 -1.750512 0
-42.607971 47.496174 -1.756976 0
38.795227 49.857090 -1.695804 0
19.623770 62.009827 -0.990557 0
8.371397 66.128883 -0.635094 0
0.172944 68.133293 -0.574762 0
-6.652988 -66.602516 -2.062390 0
1.979349 -67.977867 -2.169208 0
-14.562767 -64.976059 -2.097631 0
36.449841 -46.746181 -1.735102 0
-43.477917 -40.331856 -1.964872 0
48.093182 -31.116770 -1.792888 0
50.853897 -28.155800 -1.947714 0
53.040531 -24.549385 -2.023713 0
55.599644 -13.265812 -1.934818 0
-55.284966 -6.816833 -1.781066 0
-57.428478 -3.386687 -2.027992 0
-56.725163 12.219850 -1.959034 0
52.959133 20.986273 -1.730581 0
-54.132515 20.722218 -1.796805 0
-52.903294 28.065851 -1.884556 0
49.785248 33.671436 -1.875434 0
-50.321869 34.934212 -1.868743 0
46.018822 37.134701 -1.623529 0
42.019825 43.601192 -1.584621 0
26.269287 58.274578 -1.196968 0
-21.825140 60.819530 -0.954870 0
-12.018354 64.726479 -0.668618 0
-5.995508 66.292702 -0.541840 0
-3.036990 66.142357 -0.475523 0
-1.373623 -66.258362 -1.973347 0
-17.323633 -63.155666 -2.018236 0
20.343573 -60.881676 -1.923150 0
43.639084 -38.504158 -1.789399 0
-55.344418 -11.785176 -1.899694 0
56.353020 3.834024 -1.855777 0
-49.818150 30.434935 -1.592147 0
-47.720016 38.103691 -1.725174 0
-34.507046 52.183525 -1.311185 0
-18.475409 61.401375 -0.776482 0
13.742626 63.735985 -0.742105 0
3.689405 65.338394 -0.443417 0
3.251756 -66.378517 -1.999448 0
6.765556 -66.351494 -2.039727 0
-12.513858 -64.690323 -1.993621 0
13.789900 -65.005081 -2.075495 0
16.988894 -62.767208 -1.959116 0
23.533417 -57.373367 -1.738098 0
27.360495 -56.356689 -1.886110 0
-27.080261 -57.057644 -1.963351 0
39.199318 -43.982498 -1.766136 0
-48.529125 -31.789989 -1.948351 0
-49.204586 -26.848494 -1.723482 0
-56.862125 0.424199 -1.920870 0
40.094780 46.556343 -1.586258 0
35.340866 50.686230 -1.409675 0
32.485050 54.057384 -1.403728 0
29.255537 55.952900 -1.261190 0
23.520359 60.359085 -1.149140 0
-10.146654 -63.941628 -1.840504 0
-14.131561 -62.328575 -1.796099 0
-37.806065 -46.887661 -1.914832 0
53.206203 -16.576910 -1.728241 0
-56.561604 8.792341 -1.894720 0
54.683910 10.561036 -1.702866 0
47.433147 32.831779 -1.551753 0
-44.655170 39.943413 -1.480216 0
43.511471 40.341049 -1.533162 0
-28.179823 56.349701 -1.082584 0
11.594684 -64.019737 -1.888445 0
-20.309601 -61.107712 -1.952394 0
-29.797136 -54.181442 -1.882678 0
-32.136463 -51.536663 -1.818889 0
40.221760 -41.348598 -1.649282 0
-45.302662 -35.917984 -1.848580 0
50.559158 -24.521894 -1.720752 0
-51.440434 -21.707827 -1.740454 0
-55.078030 -2.428386 -1.690572 0
-55.261524 2.255751 -1.688368 0
50.737988 24.996590 -1.597347 0
-47.801659 34.264870 -1.527782 0
37.400112 47.686348 -1.386860 0
-30.143240 53.470688 -1.010541 0
22.627262 58.910446 -0.954448 0
24.172260 56.219025 -0.845590 0
-15.020603 62.536877 -0.662001 0
-4.288754 -63.868492 -1.710101 0
9.387067 -64.523651 -1.883316 0
19.141914 -58.844147 -1.637404 0
-34.985950 -48.435410 -1.784004 0
-39.514591 -41.367809 -1.616141 0
45.063755 -32.284332 -1.503718 0
48.561031 -27.238585 -1.617519 0
51.907360 -20.924263 -1.725711 0
-52.348518 -14.194102 -1.558348 0
54.409130 2.439218 -1.591004 0
-55.066483 6.528342 -1.668947 0
-53.919811 11.687572 -1.558899 0
52.439392 17.438972 -1.556447 0
-51.242191 25.877850 -1.585721 0
-43.619308 42.954159 -1.559185 0
-40.554821 45.821606 -1.429432 0
38.716244 44.468864 -1.288449 0
27.101471 55.294472 -1.013641 0
-21.644138 57.584404 -0.680740 0
20.412933 57.865944 -0.692952 0
16.889711 60.464180 -0.670454 0
-8.966788 64.148560 -0.499865 0
-0.121619 65.149658 -0.400092 0
-6.922998 -62.472958 -1.586107 0
-37.746082 -44.881165 -1.734767 0
44.644791 -35.362667 -1.668881 0
-45.197960 -33.142921 -1.635436 0
53.428520 -11.600013 -1.614504 0
-53.038723 -9.587669 -1.520111 0
54.669106 -3.309120 -1.641282 0
54.007198 6.443510 -1.560750 0
52.667957 13.581027 -1.490542 0
-51.632671 21.102413 -1.467594 0
-37.226120 48.118401 -1.257029 0
29.672117 52.905521 -1.042647 0
-25.287088 57.063927 -0.908065 0
-16.779833 59.567986 -0.532059 0
10.715450 62.080963 -0.445791 0
4.679679 -64.025238 -1.737945 0
13.798999 -62.249821 -1.769068 0
15.555616 -59.775051 -1.562127 0
-23.373037 -57.966213 -1.804785 0
27.063881 -53.179989 -1.543551 0
-28.802822 -52.525311 -1.640691 0
30.560991 -50.063053 -1.509413 0
33.498714 -46.110050 -1.390945 0
-51.871555 -17.950384 -1.631961 0
48.640522 28.610682 -1.490902 0
-45.087818 36.294415 -1.309821 0
42.994293 37.078049 -1.267347 0
-41.309742 42.122341 -1.250330 0
34.953442 46.623310 -1.050093 0
32.446171 50.561287 -1.113127 0
13.923031 61.113537 -0.537397 0
-12.245464 61.497910 -0.445311 0
-5.726793 63.384438 -0.345578 0
7.090194 -64.017548 -1.774484 0
-20.473995 -58.606361 -1.695764 0
-25.290720 -54.585400 -1.578725 0
36.831272 -43.478455 -1.481265 0
40.663681 -39.271385 -1.521463 0
-42.225517 -37.104988 -1.574316 0
46.476593 -29.067684 -1.468182 0
-47.130409 -30.218239 -1.671762 0
-48.426598 -22.313902 -1.361941 0
52.557869 -4.269306 -1.360424 0
-52.747776 -4.978231 -1.382084 0
-53.242062 -0.486745 -1.404540 0
-53.005810 7.447639 -1.371979 0
52.654636 10.024042 -1.422600 0
-48.713871 25.961914 -1.246238 0
46.171101 29.525311 -1.222955 0
45.086002 34.832050 -1.378185 0
40.434635 40.551193 -1.200264 0
-37.893368 44.293331 -1.033963 0
-34.368862 49.231304 -1.056085 0
-32.359493 50.896172 -0.997424 0
-26.212559 54.318336 -0.748456 0
6.650103 62.946835 -0.353217 0
1.917299 -64.348518 -1.751572 0
10.796108 -60.699753 -1.485158 0
-21.531605 -55.771713 -1.446949 0
38.042763 -40.142921 -1.313320 0
42.553593 -34.923489 -1.394199 0
-45.303696 -29.431448 -1.384178 0
-46.109772 -25.906181 -1.254047 0
48.344906 -24.012482 -1.414750 0
-47.913818 -25.022955 -1.441682 0
52.771858 -7.824943 -1.439125 0
53.205681 -0.427967 -1.425287 0
-53.274349 3.752757 -1.394851 0
50.370739 16.026314 -1.240523 0
49.302040 20.538254 -1.239595 0
17.594833 57.965580 -0.498546 0
-12.269382 -60.237888 -1.483047 0
8.630314 -62.633671 -1.648009 0
-17.089087 -59.580318 -1.620301 0
23.695135 -54.188580 -1.401398 0
49.591206 -21.640663 -1.458599 0
-49.563511 -18.288841 -1.323560 0
-50.536232 -11.272778 -1.195713 0
51.354378 7.645524 -1.211408 0
50.562408 12.231921 -1.176535 0
47.536205 25.465496 -1.205236 0
37.096512 42.946465 -0.998180 0
-35.186394 46.707626 -0.936300 0
-8.560602 61.556789 -0.299132 0
-9.449928 -61.302055 -1.510013 0
17.422482 -56.602234 -1.282930 0
20.638329 -55.594147 -1.354052 0
-32.049065 -48.191875 -1.487755 0
-35.395584 -44.453194 -1.457365 0
40.382912 -37.301479 -1.330175 0
-43.056046 -33.189247 -1.370592 0
50.256882 -18.467846 -1.411785 0
50.884598 -14.498303 -1.352518 0
-49.771496 -14.652784 -1.200493 0
-50.852951 -7.994718 -1.154502 0
51.965347 3.417428 -1.259920 0
-51.468964 9.483675 -1.159124 0
-52.632198 16.030975 -1.461247 0
43.878544 32.547794 -1.100837 0
32.091331 48.311111 -0.891150 0
-32.008549 48.135418 -0.735863 0
26.472528 53.003361 -0.761884 0
-2.702840 62.782780 -0.251077 0
0.329550 -63.045254 -1.587718 0
3.214215 -61.442696 -1.412912 0
6.630549 -61.851215 -1.516222 0
-26.907169 -51.021255 -1.321620 0
-29.326939 -49.686787 -1.388990 0
34.979321 -41.879837 -1.144929 0
37.272823 -37.271248 -0.980655 0
46.430817 -25.654768 -1.262237 0
-50.971214 -1.855253 -1.069369 0
-50.518436 17.170773 -1.177575 0
-48.592499 22.652143 -1.086566 0
-45.805096 32.223572 -1.167088 0
-42.057915 38.459503 -1.085518 0
40.541821 36.261368 -0.922285 0
-39.432163 40.712624 -0.938949 0
37.762573 39.763409 -0.836488 0
-30.410851 50.665688 -0.794398 0
-23.786848 53.385372 -0.466359 0
22.834059 54.108791 -0.549162 0
8.530614 60.094452 -0.185802 0
3.030138 60.691315 -0.090531 0
-1.983949 -62.715580 -1.551016 0
13.467666 -59.222599 -1.405846 0
25.043116 -51.358856 -1.187516 0
39.928982 -34.600819 -1.063024 0
41.979385 -31.608320 -1.084045 0
44.311043 -28.706038 -1.177188 0
50.972267 -10.202759 -1.242035 0
-51.634174 1.611461 -1.147668 0
-50.683723 13.488885 -1.108112 0
29.262560 49.808052 -0.739919 0
-27.831688 50.198860 -0.520364 0
14.526381 58.254166 -0.325938 0
-13.945277 58.710915 -0.301941 0
-10.226352 59.117943 -0.165587 0
0.762582 62.790016 -0.238193 0
-3.900892 -60.095585 -1.249583 0
6.232457 -59.769638 -1.254419 0
27.825230 -49.031704 -1.162558 0
46.998672 -21.051311 -1.094154 0
-49.889767 -5.235091 -0.950439 0
50.249348 -0.439463 -1.010565 0
-51.028774 5.096653 -1.055191 0
49.287086 10.030006 -0.956302 0
-50.235317 19.272326 -1.196896 0
-48.554317 19.544039 -0.960212 0
-47.389381 29.199846 -1.214029 0
-42.526825 34.910904 -0.913791 0
34.160175 42.971878 -0.672934 0
-34.085567 44.612686 -0.653461 0
31.624304 46.210632 -0.668762 0
11.423139 58.779053 -0.198119 0
-5.725760 59.908161 -0.084901 0
-8.276078 -58.748161 -1.166896 0
-17.236065 -57.345551 -1.359344 0
-18.572670 -56.616501 -1.355439 0
-39.201519 -38.082733 -1.295181 0
-40.355827 -34.699375 -1.148840 0
49.889893 -6.274905 -1.010622 0
-48.034634 -9.030460 -0.750877 0
49.502739 5.327870 -0.922365 0
47.851387 14.970454 -0.857819 0
-43.112289 31.298233 -0.763328 0
41.854267 33.415558 -0.897739 0
18.704586 55.354988 -0.340595 0
6.013354 60.383488 -0.126743 0
-14.555170 -58.239902 -1.336557 0
14.051099 -57.192570 -1.185118 0
18.570379 -53.003025 -0.920977 0
15.976766 -54.656651 -0.969787 0
21.799541 -52.568481 -1.083939 0
30.667776 -46.833282 -1.190968 0
-42.323105 -30.926542 -1.101326 0
48.343681 -17.171021 -1.102003 0
-46.447994 -19.482649 -0.930802 0
-47.413227 -15.976254 -0.906301 0
49.579586 -12.294634 -1.100454 0
48.021217 -14.145834 -0.942254 0
-48.400391 -12.599895 -0.920540 0
-50.372379 11.171922 -1.012430 0
45.744728 23.419701 -0.869465 0
-46.109421 24.693222 -0.819595 0
-45.038486 28.186581 -0.845842 0
43.972477 27.831450 -0.849245 0
-36.857357 41.479408 -0.706446 0
25.894409 50.522266 -0.488442 0
-20.455032 54.697170 -0.332314 0
-17.440899 56.641460 -0.315512 0
8.585485 -58.921768 -1.197814 0
-12.442076 -57.073002 -1.100700 0
-16.046144 -55.839401 -1.117360 0
-19.256758 -54.784222 -1.179507 0
-23.898369 -52.233372 -1.211587 0
46.487541 19.495230 -0.807303 0
41.142021 31.437742 -0.685390 0
-38.971401 37.507290 -0.656360 0
-30.742250 46.300274 -0.452913 0
-1.180547 60.211151 -0.042266 0
-0.026293 -60.354435 -1.260640 0
11.633626 -57.812595 -1.157029 0
-21.173483 -52.540527 -1.041196 0
-29.243471 -47.179855 -1.116305 0
31.303568 -43.013454 -0.867243 0
-32.090656 -44.766163 -1.142963 0
-34.215500 -42.620052 -1.150165 0
-36.377934 -40.248356 -1.163286 0
-43.230579 -27.774393 -0.988980 0
-45.792889 -22.740585 -1.015494 0
48.378471 -10.182498 -0.873155 0
-46.691719 21.496202 -0.761472 0
-34.337456 42.176109 -0.478816 0
12.565885 55.540333 0.039230 0
9.785378 -57.380161 -1.037761 0
-18.515316 -53.269718 -0.947914 0
23.225655 -50.048519 -0.898540 0
25.477345 -48.419731 -0.895114 0
-25.921993 -48.947624 -1.007416 0
38.171116 -32.487297 -0.682583 0
44.404148 -24.923767 -0.956312 0
-43.970951 -24.805866 -0.887540 0
-48.504833 -2.028710 -0.684459 0
-49.647167 1.480165 -0.839219 0
37.680855 36.951443 -0.619034 0
35.660583 40.524269 -0.646876 0
22.909077 50.944416 -0.259154 0
21.062405 53.107574 -0.308158 0
-13.039305 56.561878 -0.061308 0
34.317738 -39.575893 -0.856622 0
-32.842407 -41.083714 -0.848567 0
35.046413 -36.088127 -0.610800 0
-37.348984 -36.363659 -0.922359 0
-40.315773 -31.979134 -0.919634 0
48.837746 -3.485564 -0.815510 0
-48.458679 4.649147 -0.648561 0
-49.714218 7.493054 -0.863950 0
-48.963848 10.543467 -0.785806 0
-40.439987 33.051876 -0.527879 0
38.810619 34.113045 -0.559369 0
35.058548 38.837746 -0.446984 0
-31.578520 42.617432 -0.216357 0
28.260946 46.822525 -0.378634 0
-24.431789 50.460670 -0.243034 0
15.638535 55.170242 -0.109129 0
-8.876106 56.752483 0.104668 0
9.578034 57.598957 -0.009285 0
6.304615 57.736767 0.096480 0
2.828601 -58.298187 -1.014097 0
5.340542 -57.819466 -0.985981 0
7.384016 -57.199455 -0.949594 0
11.558264 -55.479206 -0.865685 0
20.663788 -50.192493 -0.728088 0
29.050030 -45.909542 -0.943173 0
-29.901642 -43.235600 -0.757181 0
-38.292713 -32.732525 -0.722913 0
46.341854 -8.287228 -0.522259 0
-47.709126 -5.487147 -0.612952 0
47.474281 9.609158 -0.676974 0
-35.175079 39.766926 -0.380526 0
30.772093 43.783852 -0.370330 0
-28.447886 45.816990 -0.177559 0
24.900331 48.339050 -0.193768 0
-18.024942 53.032871 -0.002221 0
17.608892 52.897331 -0.023696 0
-15.822475 55.010029 -0.059183 0
0.226892 57.224503 0.235748 0
-5.327619 -57.847038 -0.980421 0
13.740952 -54.376369 -0.822254 0
-27.529087 -45.843128 -0.803894 0
-40.301189 -29.399837 -0.716723 0
42.275249 -27.440756 -0.834520 0
44.441715 -22.482958 -0.819082 0
45.792339 -16.978214 -0.738355 0
46.108707 -12.632206 -0.617100 0
47.269382 -2.241549 -0.563216 0
47.385525 0.478977 -0.567639 0
48.100945 2.874509 -0.686484 0
-48.397873 16.270576 -0.832680 0
45.354931 17.052313 -0.548289 0
-45.761536 18.581877 -0.511608 0
-41.495930 28.550089 -0.382010 0
-35.669014 37.053135 -0.218158 0
32.394447 40.562889 -0.275842 0
-25.723570 47.654274 -0.087614 0
-21.363129 51.827545 -0.125138 0
-2.976800 57.932251 0.145155 0
3.227045 57.253281 0.212550 0
-5.838562 -55.595520 -0.692846 0
-0.399821 -57.606438 -0.908988 0
-10.213826 -56.482635 -0.933453 0
5.301209 -55.790661 -0.726517 0
-16.753531 -52.796974 -0.778232 0
23.479490 -47.441772 -0.622721 0
26.765415 -45.136898 -0.647743 0
40.513519 -29.969231 -0.782706 0
41.906315 -23.437160 -0.530262 0
-44.002037 -19.183371 -0.555546 0
-44.637867 -16.373213 -0.509843 0
-46.339573 -12.790272 -0.616410 0
-45.081604 -9.899685 -0.314761 0
47.365826 -5.270115 -0.614060 0
-47.451313 1.412428 -0.487988 0
46.999500 6.035494 -0.544202 0
-47.478638 13.238401 -0.610625 0
43.847889 21.678471 -0.516290 0
42.392948 24.548405 -0.453390 0
-43.185032 25.492100 -0.444134 0
40.849926 28.098276 -0.441421 0
-37.904823 35.103607 -0.344587 0
19.957788 51.633080 -0.079744 0
9.287242 55.691147 0.181739 0
-8.695150 -55.127888 -0.702246 0
-11.707162 -54.552258 -0.739913 0
8.700330 -54.761280 -0.678184 0
-14.248775 -53.831623 -0.768313 0
-19.376711 -50.579910 -0.676505 0
-22.864422 -49.500385 -0.811587 0
-25.215918 -46.817875 -0.698348 0
-43.362862 -21.929539 -0.622530 0
44.440739 -20.293083 -0.703834 0
-46.170547 -3.698432 -0.333401 0
-47.992462 7.837540 -0.596370 0
45.853004 12.109109 -0.478100 0
-46.674038 9.979199 -0.419459 0
-46.474033 15.809810 -0.525126 0
-44.586681 22.303226 -0.490223 0
36.064999 35.333572 -0.304340 0
27.939518 42.905003 0.008653 0
26.258150 45.588173 -0.064374 0
-22.552034 48.938450 0.063572 0
-5.572593 56.898430 0.194693 0
-3.054149 -56.441330 -0.763396 0
15.372158 -52.050236 -0.619515 0
32.592125 -39.169037 -0.619116 0
-34.419090 -37.872372 -0.711999 0
35.527573 -33.481106 -0.428426 0
-45.568821 -6.853522 -0.303012 0
45.584408 2.957693 -0.294242 0
44.446613 14.731808 -0.334578 0
43.859432 19.332733 -0.413849 0
37.873753 31.486441 -0.261057 0
-39.139236 30.497787 -0.183335 0
33.023411 37.286045 -0.084290 0
30.180084 41.612949 -0.115828 0
21.605101 48.708187 0.064752 0
-19.328192 50.042252 0.205575 0
15.333857 52.533848 0.165768 0
-14.694381 53.450508 0.161305 0
-11.790562 54.664433 0.189605 0
11.869366 -52.631245 -0.522436 0
17.661745 -49.629387 -0.456108 0
28.420090 -41.964100 -0.456344 0
-35.769157 -34.065540 -0.520826 0
-41.552654 -25.583408 -0.606026 0
-44.262836 -13.094056 -0.305853 0
45.023930 -4.599190 -0.246718 0
-42.209476 22.801424 -0.167329 0
-37.981995 32.752045 -0.183057 0
-32.727367 38.995708 -0.030989 0
-26.115814 44.243237 0.201571 0
24.055277 46.489723 0.061426 0
18.168482 49.778042 0.236027 0
10.415831 53.282284 0.369552 0
4.928378 55.245178 0.371733 0
7.521477 54.361748 0.382252 0
-10.540812 -53.234501 -0.516255 0
-21.191195 -48.001740 -0.493628 0
20.811470 -47.677197 -0.440400 0
-26.488934 -43.617065 -0.450926 0
32.268360 -36.805508 -0.344092 0
39.853752 -27.701498 -0.535439 0
42.905373 -18.699923 -0.404872 0
-46.429081 -0.871794 -0.337464 0
-46.269878 6.743606 -0.314347 0
-43.403862 20.164160 -0.221195 0
38.801899 28.222414 -0.167203 0
-35.815376 34.209587 -0.014193 0
29.710644 39.263870 0.134375 0
-23.629583 46.051960 0.257615 0
-16.057673 50.467976 0.385772 0
-12.790010 52.102077 0.402924 0
-3.068647 55.040573 0.425101 0
2.467252 -54.890198 -0.564330 0
5.939568 -53.252827 -0.405955 0
-16.000555 -50.635811 -0.458013 0
-23.585819 -45.959755 -0.450405 0
30.315876 -39.484039 -0.392156 0
35.544682 -31.247766 -0.233405 0
38.854000 -25.243069 -0.216542 0
44.287102 -11.089710 -0.290486 0
45.236668 -0.647153 -0.239272 0
-46.272293 3.814718 -0.296711 0
-44.453884 15.094362 -0.197544 0
39.329998 24.971003 -0.043646 0
34.402557 33.843647 0.016418 0
-28.542315 42.676338 0.103915 0
2.291530 54.132187 0.527383 0
-0.616594 -54.778015 -0.530808 0
8.830801 -52.319103 -0.363363 0
23.112700 -44.791416 -0.280148 0
-28.611927 -41.409523 -0.420632 0
-30.926126 -38.970974 -0.416539 0
33.153866 -33.912998 -0.170672 0
-37.025806 -29.828268 -0.313270 0
37.450859 -28.639765 -0.275444 0
-39.406563 -27.640083 -0.459378 0
43.734806 -14.827460 -0.346238 0
-42.817730 -7.502624 0.117564 0
-43.809448 -4.373442 0.031140 0
44.983028 8.778114 -0.271074 0
-45.203167 12.011364 -0.230751 0
42.889915 17.371229 -0.194021 0
-43.056667 17.767958 -0.075725 0
41.033974 20.630404 -0.062045 0
-40.046993 24.584021 0.047830 0
-29.774780 39.997066 0.215096 0
13.006767 52.424374 0.320465 0
-7.230147 -53.345020 -0.418947 0
-12.697440 -51.627495 -0.401767 0
-18.691765 -48.035034 -0.304053 0
-21.376095 -45.479366 -0.196764 0
-33.087032 -35.718533 -0.342328 0
40.521103 -20.000448 -0.121399 0
43.266441 -8.000990 -0.040889 0
-44.807545 1.382851 -0.064350 0
45.185265 5.831743 -0.254918 0
43.575195 12.040457 -0.126094 0
36.949398 28.361612 0.078640 0
-36.447124 31.055492 0.133881 0
35.324268 30.864420 0.123829 0
-33.334003 35.857414 0.161614 0
22.622957 45.706047 0.266754 0
15.002094 49.744839 0.464493 0
-9.821282 53.680237 0.378364 0
-6.646191 54.477795 0.405806 0
8.667628 50.999821 0.677088 0
-0.464631 53.881580 0.566120 0
5.343872 52.618565 0.621907 0
-5.387359 -53.209705 -0.359554 0
-9.180272 -51.807129 -0.274631 0
39.900143 -22.714912 -0.192764 0
-41.536728 -19.008261 -0.183665 0
-42.372547 -14.848978 -0.091540 0
-42.774750 -11.209033 0.001888 0
43.150566 -1.702061 0.085438 0
-38.551235 27.875753 0.063814 0
25.081865 43.635681 0.231324 0
-20.786453 47.387867 0.364099 0
11.639745 50.644993 0.574303 0
-2.897851 -52.906738 -0.286660 0
3.839386 -51.652042 -0.144286 0
19.317085 -46.334057 -0.160798 0
-23.978750 -42.925472 -0.123307 0
25.645351 -42.041977 -0.186942 0
-26.918247 -40.022442 -0.083832 0
-34.101227 -32.300243 -0.144503 0
-40.777359 -22.682344 -0.297863 0
43.363522 1.728578 0.061126 0
-44.378242 8.891568 -0.043845 0
-42.083900 20.998756 -0.060195 0
32.836037 32.005096 0.363136 0
-33.975224 33.206432 0.292467 0
-31.030581 37.171154 0.322951 0
31.198393 35.582947 0.275598 0
20.200600 46.534378 0.395379 0
-17.854692 47.753082 0.548007 0
