#!ascii version written be Caret
3057 6022
-5.942254E+0001  4.629515E+0001  2.857404E+0001 0
-5.106907E+0001  5.653722E+0001  3.035391E+0001 0
 5.324931E+0001  5.371385E+0001  3.066705E+0001 0
-3.973177E+0001  6.863168E+0001  2.835295E+0001 0
 3.136696E+0001  7.311650E+0001  3.092699E+0001 0
 3.714984E+0001  7.044220E+0001  2.903442E+0001 0
-8.687492E+0000  8.123148E+0001  2.822976E+0001 0
 1.772629E+0001 -1.124385E+0002  3.191507E+0001 0
 4.030444E+0001 -1.048117E+0002  3.009438E+0001 0
-4.951261E+0001 -1.018102E+0002  2.934583E+0001 0
 4.402377E+0001 -1.025843E+0002  3.047714E+0001 0
 5.472498E+0001 -9.434616E+0001  3.021111E+0001 0
-6.012051E+0001 -9.247489E+0001  2.971980E+0001 0
 6.428548E+0001 -8.230634E+0001  3.246557E+0001 0
-7.310864E+0001 -7.398786E+0001  2.917312E+0001 0
 7.289612E+0001 -6.697553E+0001  3.216447E+0001 0
-8.391549E+0001 -3.777014E+0001  2.867161E+0001 0
 8.217525E+0001 -3.458970E+0001  3.200343E+0001 0
 8.214920E+0001 -2.478970E+0001  3.177757E+0001 0
 7.615418E+0001  9.248077E+0000  3.075699E+0001 0
-6.372303E+0001  3.857132E+0001  2.974303E+0001 0
 6.119626E+0001  4.293198E+0001  2.971555E+0001 0
 4.449589E+0001  6.457758E+0001  2.863174E+0001 0
 4.050557E+0001  6.643257E+0001  3.199906E+0001 0
-2.544514E+0001  7.500617E+0001  3.252090E+0001 0
-1.680199E+0000 -1.147369E+0002  3.176656E+0001 0
 3.871094E+0000 -1.144521E+0002  3.202437E+0001 0
-1.726650E+0001 -1.140841E+0002  3.037088E+0001 0
-2.338851E+0001 -1.122013E+0002  3.198442E+0001 0
-6.319975E+0001 -8.866956E+0001  3.069783E+0001 0
 6.822888E+0001 -7.718365E+0001  2.921379E+0001 0
 6.988962E+0001 -7.337542E+0001  3.179426E+0001 0
-7.701001E+0001 -6.467264E+0001  3.106461E+0001 0
 7.465887E+0001 -6.365271E+0001  3.019932E+0001 0
-8.180272E+0001 -4.748135E+0001  3.264305E+0001 0
-8.317179E+0001 -4.018423E+0001  3.180842E+0001 0
 8.244821E+0001 -3.045523E+0001  3.166722E+0001 0
-8.358414E+0001 -2.511271E+0001  3.196468E+0001 0
-7.259495E+0001  1.938359E+0001  3.236128E+0001 0
 7.090463E+0001  2.412460E+0001  3.119398E+0001 0
-7.064941E+0001  2.427992E+0001  3.179578E+0001 0
 6.734735E+0001  3.002122E+0001  3.320105E+0001 0
-6.799666E+0001  2.974300E+0001  3.156068E+0001 0
-5.669955E+0001  4.876793E+0001  3.122581E+0001 0
-3.495773E+0001  6.901024E+0001  3.453642E+0001 0
-1.898570E-0001  8.032437E+0001  3.289718E+0001 0
 2.321039E+0001 -1.102513E+0002  3.401377E+0001 0
-3.353431E+0001 -1.091875E+0002  3.171827E+0001 0
-3.893422E+0001 -1.068141E+0002  3.214233E+0001 0
 3.330465E+0001 -1.067574E+0002  3.391185E+0001 0
-5.099481E+0001 -9.955162E+0001  3.307526E+0001 0
-7.037872E+0001 -7.796364E+0001  3.191364E+0001 0
 7.753992E+0001 -5.455637E+0001  3.248585E+0001 0
 7.983725E+0001 -7.524269E+0000  3.191161E+0001 0
-7.840273E+0001  1.834229E+0000  3.223194E+0001 0
 7.833019E+0001 -4.449690E-0001  3.216421E+0001 0
 7.718933E+0001  4.317047E+0000  3.212247E+0001 0
 6.494513E+0001  3.480896E+0001  3.281304E+0001 0
 6.203894E+0001  3.926599E+0001  3.356310E+0001 0
-5.332038E+0001  5.212942E+0001  3.328731E+0001 0
-4.880002E+0001  5.963846E+0001  2.944102E+0001 0
 4.778311E+0001  5.846286E+0001  3.378322E+0001 0
-4.583257E+0001  6.216179E+0001  3.071461E+0001 0
 4.427847E+0001  6.246436E+0001  3.303116E+0001 0
 2.542035E+0001  7.573846E+0001  3.145139E+0001 0
 1.594606E+0001  7.862968E+0001  3.189394E+0001 0
-9.760330E+0000  7.945395E+0001  3.314416E+0001 0
-5.316399E+0000  8.069902E+0001  3.128011E+0001 0
 6.116615E+0000  8.065945E+0001  3.123540E+0001 0
 4.733362E+0001 -9.986762E+0001  3.215765E+0001 0
 5.094264E+0001 -9.676221E+0001  3.327306E+0001 0
-6.478287E+0001 -8.509133E+0001  3.481330E+0001 0
 6.754811E+0001 -7.663179E+0001  3.428634E+0001 0
-7.392254E+0001 -7.002838E+0001  3.456084E+0001 0
-7.709953E+0001 -6.126896E+0001  3.702859E+0001 0
-7.972742E+0001 -5.444523E+0001  3.496354E+0001 0
 7.860213E+0001 -5.032616E+0001  3.357535E+0001 0
 8.137430E+0001 -3.938882E+0001  3.289305E+0001 0
 8.137616E+0001 -1.849292E+0001  3.395554E+0001 0
-7.722457E+0001  5.593506E+0000  3.304854E+0001 0
-6.136514E+0001  3.928729E+0001  3.461396E+0001 0
-5.846130E+0001  4.352979E+0001  3.532445E+0001 0
-4.683613E+0001  5.924536E+0001  3.397175E+0001 0
-4.004348E+0001  6.587871E+0001  3.358434E+0001 0
 3.554265E+0001  6.924043E+0001  3.368021E+0001 0
-3.014315E+0001  7.292169E+0001  3.246124E+0001 0
-1.680612E+0001 -1.122333E+0002  3.541492E+0001 0
 1.233190E+0001 -1.118636E+0002  3.632827E+0001 0
-5.565216E+0001 -9.540671E+0001  3.417863E+0001 0
-6.018855E+0001 -9.067227E+0001  3.469183E+0001 0
-6.782905E+0001 -8.107943E+0001  3.448284E+0001 0
-8.336779E+0001 -3.649014E+0001  3.404699E+0001 0
-8.231477E+0001 -1.878005E+0001  3.480868E+0001 0
-8.015391E+0001 -9.798790E+0000  3.691603E+0001 0
-8.011417E+0001 -6.626518E+0000  3.386639E+0001 0
-7.576815E+0001  9.916275E+0000  3.337661E+0001 0
 7.408112E+0001  1.230500E+0001  3.511501E+0001 0
-7.419373E+0001  1.460989E+0001  3.305962E+0001 0
-6.468567E+0001  3.409639E+0001  3.380367E+0001 0
-4.305310E+0001  6.249652E+0001  3.486137E+0001 0
-2.104140E+0001  7.611906E+0001  3.393433E+0001 0
 1.943341E+0001  7.588367E+0001  3.568670E+0001 0
-1.620348E+0001  7.747757E+0001  3.420092E+0001 0
-2.900558E+0001 -1.096871E+0002  3.460696E+0001 0
-3.421874E+0001 -1.069429E+0002  3.713525E+0001 0
 3.962826E+0001 -1.039532E+0002  3.408212E+0001 0
 4.373691E+0001 -1.010292E+0002  3.581253E+0001 0
 5.349705E+0001 -9.310451E+0001  3.706660E+0001 0
 5.803151E+0001 -8.914200E+0001  3.544190E+0001 0
 7.961853E+0001 -4.415451E+0001  3.686070E+0001 0
-8.330084E+0001 -3.325614E+0001  3.556613E+0001 0
 8.025972E+0001 -1.401736E+0001  3.588239E+0001 0
-7.835202E+0001 -3.428345E+0000  3.767467E+0001 0
 7.572888E+0001  7.182602E+0000  3.484802E+0001 0
 7.177501E+0001  1.887025E+0001  3.505685E+0001 0
 6.910687E+0001  2.500113E+0001  3.518797E+0001 0
-6.700979E+0001  2.864655E+0001  3.537171E+0001 0
 5.707120E+0001  4.597937E+0001  3.509146E+0001 0
-5.538898E+0001  4.726721E+0001  3.663440E+0001 0
-4.927506E+0001  5.558244E+0001  3.559183E+0001 0
 5.784210E+0000 -1.124041E+0002  3.724051E+0001 0
-2.402406E+0001 -1.101280E+0002  3.705614E+0001 0
 2.687746E+0001 -1.086457E+0002  3.532540E+0001 0
-4.038196E+0001 -1.047739E+0002  3.612321E+0001 0
 4.837968E+0001 -9.743248E+0001  3.703783E+0001 0
 7.063449E+0001 -6.954505E+0001  3.759040E+0001 0
 7.652913E+0001 -5.410136E+0001  3.810681E+0001 0
-8.167292E+0001 -4.352161E+0001  3.787837E+0001 0
-8.325516E+0001 -2.836440E+0001  3.572214E+0001 0
-8.116760E+0001 -1.447819E+0001  3.693386E+0001 0
 7.659378E+0001  2.367722E+0000  3.622576E+0001 0
-7.583848E+0001  6.574127E+0000  3.672798E+0001 0
 2.664615E+0001  7.321765E+0001  3.546513E+0001 0
 1.317434E+0001  7.803422E+0001  3.505370E+0001 0
 4.714355E+0000  7.843776E+0001  3.740247E+0001 0
 9.368988E+0000  7.847037E+0001  3.592837E+0001 0
-9.118179E+0000 -1.121901E+0002  3.805067E+0001 0
-1.674278E+0000 -1.125616E+0002  3.781995E+0001 0
 6.117894E+0001 -8.505517E+0001  3.637610E+0001 0
-6.998687E+0001 -7.635609E+0001  3.711472E+0001 0
-7.843374E+0001 -5.647105E+0001  3.848665E+0001 0
 8.016898E+0001 -3.768623E+0001  4.036680E+0001 0
-8.229346E+0001 -2.325325E+0001  3.846268E+0001 0
 7.773445E+0001 -3.308220E+0000  3.701243E+0001 0
-7.736007E+0001  1.926102E+0000  3.638109E+0001 0
-7.327715E+0001  1.146258E+0001  3.889015E+0001 0
-7.171114E+0001  1.690355E+0001  3.738319E+0001 0
-6.930523E+0001  2.190404E+0001  3.784141E+0001 0
 5.084467E+0001  5.244284E+0001  3.787517E+0001 0
 3.880801E+0001  6.491992E+0001  3.710487E+0001 0
 3.494437E+0001  6.772922E+0001  3.720264E+0001 0
-2.890689E+0001  7.171133E+0001  3.619746E+0001 0
-2.272709E+0001  7.305953E+0001  3.865185E+0001 0
-6.075165E+0000  7.861296E+0001  3.672463E+0001 0
-1.824979E+0001 -1.099074E+0002  4.050819E+0001 0
 1.862660E+0001 -1.099892E+0002  3.796014E+0001 0
-4.471402E+0001 -1.019000E+0002  3.802597E+0001 0
 6.408899E+0001 -7.846045E+0001  4.174715E+0001 0
 7.344076E+0001 -6.329773E+0001  3.756213E+0001 0
 7.504472E+0001 -5.908412E+0001  3.775466E+0001 0
 7.808843E+0001 -4.846953E+0001  3.861026E+0001 0
-8.210626E+0001 -3.774654E+0001  3.980798E+0001 0
 8.151222E+0001 -3.206197E+0001  3.708828E+0001 0
 7.822743E+0001 -8.540771E+0000  3.957796E+0001 0
 6.967059E+0001  2.147487E+0001  3.768741E+0001 0
 6.583725E+0001  2.870106E+0001  3.841853E+0001 0
-5.888141E+0001  3.843588E+0001  4.099374E+0001 0
 4.322592E+0001  6.051787E+0001  3.805080E+0001 0
-3.889507E+0001  6.347427E+0001  3.907350E+0001 0
-3.217774E+0001  6.763931E+0001  3.976729E+0001 0
 3.157979E+0001  7.020691E+0001  3.645149E+0001 0
 2.752323E+0001 -1.072311E+0002  3.855151E+0001 0
-3.856671E+0001 -1.042884E+0002  3.972250E+0001 0
 3.862471E+0001 -1.024517E+0002  3.930553E+0001 0
-5.000763E+0001 -9.747178E+0001  4.062188E+0001 0
-5.635798E+0001 -9.284391E+0001  3.895043E+0001 0
-6.082065E+0001 -8.813536E+0001  3.911546E+0001 0
 6.261053E+0001 -8.223116E+0001  3.857337E+0001 0
-7.262741E+0001 -7.018074E+0001  3.955096E+0001 0
-7.481357E+0001 -6.592827E+0001  3.906758E+0001 0
-8.043918E+0001 -4.840560E+0001  3.890656E+0001 0
 8.046236E+0001 -1.927542E+0001  3.867287E+0001 0
 7.613609E+0001  2.754440E-0001  3.947105E+0001 0
 7.449948E+0001  5.392441E+0000  4.015875E+0001 0
-6.297442E+0001  3.390883E+0001  3.793381E+0001 0
 6.179828E+0001  3.485731E+0001  3.994772E+0001 0
 5.711060E+0001  4.220491E+0001  4.042043E+0001 0
-5.129238E+0001  5.036620E+0001  3.975803E+0001 0
 4.657367E+0001  5.663478E+0001  3.901290E+0001 0
 2.872070E+0001  6.974608E+0001  4.022813E+0001 0
 1.344833E+0001  7.583536E+0001  3.962810E+0001 0
-1.288676E+0001  7.602277E+0001  3.948497E+0001 0
 1.405217E+0001 -1.091899E+0002  4.209482E+0001 0
-2.832600E+0001 -1.075765E+0002  4.045308E+0001 0
 2.394850E+0001 -1.074423E+0002  4.076637E+0001 0
 4.514038E+0001 -9.808835E+0001  4.112484E+0001 0
-6.359527E+0001 -8.428426E+0001  4.030215E+0001 0
-6.662999E+0001 -7.974124E+0001  4.085514E+0001 0
 6.809376E+0001 -7.202999E+0001  4.185923E+0001 0
 8.039362E+0001 -2.635490E+0001  4.132881E+0001 0
 7.827107E+0001 -1.468894E+0001  4.362602E+0001 0
-7.518320E+0001  3.104858E+0000  4.169389E+0001 0
 7.206041E+0001  1.248878E+0001  4.057241E+0001 0
 6.964893E+0001  1.756935E+0001  4.153915E+0001 0
 6.619222E+0001  2.416800E+0001  4.228672E+0001 0
-6.499592E+0001  2.775267E+0001  4.065726E+0001 0
 5.372676E+0001  4.765964E+0001  3.956632E+0001 0
-4.428711E+0001  5.656743E+0001  4.201578E+0001 0
 2.420833E+0001  7.187610E+0001  4.000584E+0001 0
-1.501678E+0000  7.699805E+0001  4.086591E+0001 0
-1.262448E+0001 -1.106593E+0002  4.078343E+0001 0
 8.309402E+0000 -1.103747E+0002  4.149044E+0001 0
 1.955841E+0001 -1.073030E+0002  4.378734E+0001 0
-7.003752E+0001 -7.313005E+0001  4.265988E+0001 0
-7.890731E+0001 -5.188953E+0001  4.148576E+0001 0
-8.234066E+0001 -3.167659E+0001  4.090923E+0001 0
-8.220679E+0001 -2.737772E+0001  4.119624E+0001 0
-8.030529E+0001 -1.568715E+0001  4.130859E+0001 0
 7.595862E+0001 -2.845375E+0000  4.239912E+0001 0
-7.426663E+0001  7.632416E+0000  4.023246E+0001 0
 3.344831E+0001  6.634370E+0001  4.119655E+0001 0
 2.047743E+0001  7.339156E+0001  3.996967E+0001 0
 8.444542E+0000  7.577884E+0001  4.188476E+0001 0
-6.189964E+0000 -1.094188E+0002  4.487347E+0001 0
 2.056450E+0000 -1.101849E+0002  4.330261E+0001 0
-2.260175E+0001 -1.083887E+0002  4.203617E+0001 0
-3.346575E+0001 -1.046506E+0002  4.347056E+0001 0
 3.024064E+0001 -1.045771E+0002  4.264474E+0001 0
-4.230757E+0001 -1.006130E+0002  4.422596E+0001 0
 4.162375E+0001 -9.900895E+0001  4.404724E+0001 0
 4.961401E+0001 -9.441901E+0001  4.197788E+0001 0
 5.594899E+0001 -8.825621E+0001  4.265005E+0001 0
 5.286488E+0001 -9.106739E+0001  4.309363E+0001 0
 5.972548E+0001 -8.445136E+0001  4.168180E+0001 0
 7.016486E+0001 -6.804857E+0001  4.209408E+0001 0
 7.195415E+0001 -6.365144E+0001  4.264363E+0001 0
 7.431488E+0001 -5.859643E+0001  4.132605E+0001 0
-7.746256E+0001 -5.640264E+0001  4.218151E+0001 0
 7.647833E+0001 -4.750732E+0001  4.518909E+0001 0
 7.821768E+0001 -4.555595E+0001  4.126037E+0001 0
 8.033600E+0001 -3.317281E+0001  4.218714E+0001 0
-7.830456E+0001 -7.719093E+0000  4.197485E+0001 0
-6.993860E+0001  1.564170E+0001  4.275152E+0001 0
-5.511675E+0001  4.379140E+0001  4.167261E+0001 0
 4.217349E+0001  5.790762E+0001  4.331877E+0001 0
 3.844691E+0001  6.252953E+0001  4.143162E+0001 0
-2.725526E+0001  6.878737E+0001  4.252560E+0001 0
-1.670791E+0001  7.233151E+0001  4.427982E+0001 0
 1.685523E+0001  7.314273E+0001  4.275327E+0001 0
-7.515923E+0000  7.607315E+0001  4.176888E+0001 0
 3.820930E+0000  7.637019E+0001  4.195461E+0001 0
-5.318818E+0001 -9.358493E+0001  4.370152E+0001 0
-5.734833E+0001 -9.018708E+0001  4.265702E+0001 0
-7.346841E+0001 -6.538576E+0001  4.384607E+0001 0
-8.003603E+0001 -4.433823E+0001  4.371651E+0001 0
 7.814180E+0001 -4.249551E+0001  4.429526E+0001 0
-7.579153E+0001 -3.366043E+0000  4.526749E+0001 0
 7.207236E+0001  6.562714E+0000  4.521215E+0001 0
 6.275101E+0001  2.979811E+0001  4.352481E+0001 0
-6.141995E+0001  3.236102E+0001  4.269892E+0001 0
 5.102718E+0001  4.778363E+0001  4.396047E+0001 0
 4.697513E+0001  5.313709E+0001  4.331852E+0001 0
-2.161409E+0001  6.944316E+0001  4.577132E+0001 0
-4.996678E+0001 -9.567869E+0001  4.496152E+0001 0
-6.032984E+0001 -8.647486E+0001  4.362368E+0001 0
-7.575937E+0001 -5.995532E+0001  4.386464E+0001 0
 7.548379E+0001 -5.299045E+0001  4.348151E+0001 0
-8.045491E+0001 -2.301948E+0001  4.522245E+0001 0
 7.961221E+0001 -2.063086E+0001  4.256356E+0001 0
-7.794209E+0001 -1.156229E+0001  4.582054E+0001 0
-7.272970E+0001  7.479279E+0000  4.400801E+0001 0
-6.882816E+0001  1.892467E+0001  4.207743E+0001 0
-6.650728E+0001  2.013629E+0001  4.526752E+0001 0
-4.794668E+0001  5.102005E+0001  4.439525E+0001 0
-3.703750E+0001  6.053305E+0001  4.541137E+0001 0
 2.029847E+0001  7.047888E+0001  4.518135E+0001 0
 1.254901E+0001  7.333318E+0001  4.479582E+0001 0
-1.047230E+0001  7.277052E+0001  4.650972E+0001 0
-1.294776E+0001 -1.086407E+0002  4.516913E+0001 0
-6.318030E+0001 -8.281547E+0001  4.406992E+0001 0
-6.715084E+0001 -7.555269E+0001  4.646796E+0001 0
-7.789039E+0001 -5.046079E+0001  4.613390E+0001 0
-8.037669E+0001 -3.494818E+0001  4.714559E+0001 0
-8.045035E+0001 -2.966037E+0001  4.731978E+0001 0
-7.966711E+0001 -1.767374E+0001  4.493954E+0001 0
 7.609071E+0001 -8.525436E+0000  4.597420E+0001 0
 7.393845E+0001  1.067978E+0000  4.492145E+0001 0
-7.111889E+0001  1.078212E+0001  4.462921E+0001 0
 6.966138E+0001  1.190133E+0001  4.624609E+0001 0
-6.251992E+0001  2.744002E+0001  4.552384E+0001 0
 5.809537E+0001  3.775061E+0001  4.427589E+0001 0
 5.495679E+0001  4.046970E+0001  4.639459E+0001 0
-4.974681E+0001  4.621446E+0001  4.719370E+0001 0
-3.156388E+0001  6.481679E+0001  4.471687E+0001 0
 3.505878E+0001  6.200517E+0001  4.597093E+0001 0
 2.702940E+0001  6.672624E+0001  4.628994E+0001 0
 6.238022E+0000 -1.083893E+0002  4.636901E+0001 0
 1.019461E+0001 -1.086423E+0002  4.481932E+0001 0
-1.744882E+0001 -1.078352E+0002  4.545050E+0001 0
-2.370345E+0001 -1.061318E+0002  4.627576E+0001 0
 2.428905E+0001 -1.042115E+0002  4.786489E+0001 0
-3.502844E+0001 -1.014543E+0002  4.912537E+0001 0
 3.680848E+0001 -1.012783E+0002  4.435749E+0001 0
 4.513493E+0001 -9.543775E+0001  4.678297E+0001 0
 4.924684E+0001 -9.124963E+0001  4.867075E+0001 0
 5.807713E+0001 -8.299371E+0001  4.773769E+0001 0
-6.340509E+0001 -7.985437E+0001  4.825724E+0001 0
 7.356718E+0001 -5.666401E+0001  4.575249E+0001 0
 7.461616E+0001 -5.124886E+0001  4.769265E+0001 0
-7.819671E+0001 -4.474967E+0001  4.894048E+0001 0
-8.002472E+0001 -3.941116E+0001  4.665431E+0001 0
 7.856125E+0001 -3.105331E+0001  4.748485E+0001 0
 7.821115E+0001 -2.202073E+0001  4.719913E+0001 0
-6.414216E+0001  2.447443E+0001  4.554027E+0001 0
-5.840076E+0001  3.467206E+0001  4.590166E+0001 0
-5.499079E+0001  3.853238E+0001  4.753801E+0001 0
 5.157352E+0001  4.425156E+0001  4.747544E+0001 0
-4.901718E+0000  7.431984E+0001  4.557809E+0001 0
 1.522987E+0000  7.397453E+0001  4.635553E+0001 0
 1.645570E+0001 -1.068793E+0002  4.618088E+0001 0
 3.347574E+0001 -1.014386E+0002  4.720084E+0001 0
-4.685313E+0001 -9.664269E+0001  4.736218E+0001 0
-5.582879E+0001 -8.894973E+0001  4.782039E+0001 0
-6.029895E+0001 -8.428073E+0001  4.763259E+0001 0
 6.198650E+0001 -7.718841E+0001  4.896280E+0001 0
 6.920912E+0001 -6.615292E+0001  4.702915E+0001 0
-7.622496E+0001 -5.569666E+0001  4.672262E+0001 0
 7.434322E+0001 -4.116776E+0000  4.738356E+0001 0
 6.660687E+0001  1.697595E+0001  4.789758E+0001 0
-5.893247E+0001  2.903832E+0001  5.010171E+0001 0
 4.517648E+0001  5.105434E+0001  4.820318E+0001 0
-2.635246E+0001  6.618332E+0001  4.720966E+0001 0
 1.188289E+0001 -1.061540E+0002  4.930742E+0001 0
 2.927289E+0001 -1.024172E+0002  4.846878E+0001 0
 3.879658E+0001 -9.809725E+0001  4.897069E+0001 0
 5.356152E+0001 -8.778201E+0001  4.804769E+0001 0
-6.883209E+0001 -7.086418E+0001  4.878783E+0001 0
 6.570515E+0001 -7.201918E+0001  4.796289E+0001 0
-7.386879E+0001 -5.871877E+0001  4.992053E+0001 0
 7.115027E+0001 -6.088513E+0001  4.806923E+0001 0
 7.789188E+0001 -3.768903E+0001  4.789147E+0001 0
-7.864181E+0001 -1.833478E+0001  4.800601E+0001 0
 7.593828E+0001 -1.230347E+0001  4.859470E+0001 0
-6.815361E+0001  1.342126E+0001  4.812250E+0001 0
 6.320093E+0001  2.292351E+0001  4.909797E+0001 0
 5.851504E+0001  3.363983E+0001  4.762571E+0001 0
 4.759992E+0001  4.634575E+0001  5.040121E+0001 0
-4.479133E+0001  5.188615E+0001  4.766932E+0001 0
 4.236185E+0001  5.464506E+0001  4.737106E+0001 0
-3.177173E+0001  6.124725E+0001  4.950784E+0001 0
 1.370024E+0001  7.005174E+0001  4.949864E+0001 0
 7.794525E+0000  7.247969E+0001  4.781052E+0001 0
 7.614900E-0002 -1.071735E+0002  4.970097E+0001 0
-2.852358E+0001 -1.040984E+0002  4.818077E+0001 0
 7.599316E+0001 -1.616413E+0001  5.029924E+0001 0
-7.593815E+0001 -8.013618E+0000  4.834815E+0001 0
-7.174163E+0001  2.673767E+0000  4.950009E+0001 0
-6.987851E+0001  8.709381E+0000  4.866320E+0001 0
-6.216448E+0001  2.306892E+0001  5.014594E+0001 0
 6.091858E+0001  2.806552E+0001  4.858557E+0001 0
 3.806154E+0001  5.783101E+0001  4.831291E+0001 0
-2.920255E+0001  6.373084E+0001  4.841054E+0001 0
 3.143199E+0001  6.282190E+0001  4.841649E+0001 0
-4.388298E+0000  7.073468E+0001  5.112236E+0001 0
-5.768822E+0000 -1.061433E+0002  5.158125E+0001 0
-1.366667E+0001 -1.056887E+0002  5.075841E+0001 0
 5.587929E+0000 -1.061465E+0002  5.093812E+0001 0
-2.227801E+0001 -1.043257E+0002  5.066119E+0001 0
 1.828716E+0001 -1.043800E+0002  5.054125E+0001 0
-5.050124E+0001 -9.290324E+0001  4.927044E+0001 0
-7.156219E+0001 -6.492166E+0001  4.943188E+0001 0
-7.547982E+0001 -5.072896E+0001  5.182681E+0001 0
 7.600726E+0001 -4.150129E+0001  5.065559E+0001 0
-7.737699E+0001 -2.426261E+0001  5.311694E+0001 0
 7.592953E+0001 -2.030368E+0001  5.223796E+0001 0
 7.185686E+0001 -3.984800E-0002  4.995110E+0001 0
 6.921561E+0001  5.554855E+0000  5.129637E+0001 0
-5.668950E+0001  3.360908E+0001  4.975380E+0001 0
-3.936874E+0001  5.442290E+0001  5.066188E+0001 0
-1.559812E+0001  6.910671E+0001  4.991438E+0001 0
 3.233437E+0001 -9.951434E+0001  5.186482E+0001 0
-4.201194E+0001 -9.813665E+0001  4.983453E+0001 0
 4.206074E+0001 -9.332440E+0001  5.411556E+0001 0
-6.516162E+0001 -7.546615E+0001  5.091576E+0001 0
 7.115434E+0001 -5.515978E+0001  5.280166E+0001 0
 7.423296E+0001 -4.739424E+0001  5.141653E+0001 0
-7.824616E+0001 -3.949093E+0001  5.121912E+0001 0
-7.590464E+0001 -1.391192E+0001  5.173434E+0001 0
-7.347366E+0001 -5.227089E+0000  5.142436E+0001 0
-6.356557E+0001  1.749339E+0001  5.251484E+0001 0
-4.375332E+0001  4.938527E+0001  5.139681E+0001 0
-3.453546E+0001  5.791539E+0001  5.130619E+0001 0
 2.740084E+0001  6.306929E+0001  5.118983E+0001 0
 1.914089E+0001  6.732196E+0001  5.087437E+0001 0
 2.409950E+0000  7.104767E+0001  5.098333E+0001 0
-2.635828E+0001 -1.024647E+0002  5.240655E+0001 0
-5.325784E+0001 -8.836721E+0001  5.299615E+0001 0
 5.110381E+0001 -8.794799E+0001  5.166144E+0001 0
-5.768990E+0001 -8.400537E+0001  5.256314E+0001 0
 5.370193E+0001 -8.393348E+0001  5.374483E+0001 0
 5.840939E+0001 -7.888976E+0001  5.329795E+0001 0
 6.600969E+0001 -6.623448E+0001  5.383935E+0001 0
-7.136245E+0001 -6.231551E+0001  5.242896E+0001 0
 6.890031E+0001 -6.173637E+0001  5.241225E+0001 0
-7.756086E+0001 -3.381350E+0001  5.394769E+0001 0
 7.576325E+0001 -3.409343E+0001  5.371107E+0001 0
 7.592699E+0001 -2.573415E+0001  5.358607E+0001 0
 7.308046E+0001 -9.519470E+0000  5.294608E+0001 0
 6.748383E+0001  1.033912E+0001  5.122681E+0001 0
 5.392279E+0001  3.652571E+0001  5.179765E+0001 0
 5.128807E+0001  4.176109E+0001  5.045333E+0001 0
 3.905769E+0001  5.392920E+0001  5.175132E+0001 0
 3.348039E+0001  5.894138E+0001  5.143539E+0001 0
 2.282442E+0001  6.564693E+0001  5.098517E+0001 0
-2.085000E+0001  6.553883E+0001  5.188298E+0001 0
-1.058889E+0001  6.808907E+0001  5.343116E+0001 0
 6.915619E+0000  6.930244E+0001  5.284621E+0001 0
 2.143153E+0001 -1.018500E+0002  5.409458E+0001 0
 2.645695E+0001 -1.007634E+0002  5.348154E+0001 0
-4.443354E+0001 -9.478331E+0001  5.318346E+0001 0
-6.838424E+0001 -6.732679E+0001  5.369358E+0001 0
-6.644362E+0001  1.229937E+0001  5.192600E+0001 0
 6.276994E+0001  1.897951E+0001  5.282806E+0001 0
 5.699976E+0001  3.059085E+0001  5.263937E+0001 0
-5.425616E+0001  3.314896E+0001  5.354165E+0001 0
-5.024786E+0001  3.966858E+0001  5.306599E+0001 0
-4.519687E+0001  4.450751E+0001  5.443117E+0001 0
 4.319028E+0001  4.955028E+0001  5.210358E+0001 0
-2.621683E+0001  6.290939E+0001  5.180970E+0001 0
 6.840508E+0000 -1.029564E+0002  5.653821E+0001 0
-3.823489E+0001 -9.806061E+0001  5.312285E+0001 0
 3.556914E+0001 -9.607449E+0001  5.552943E+0001 0
 4.779491E+0001 -8.859090E+0001  5.494307E+0001 0
 6.167763E+0001 -7.341434E+0001  5.427628E+0001 0
 7.393948E+0001 -4.306773E+0001  5.428805E+0001 0
-7.604270E+0001 -4.437822E+0001  5.386459E+0001 0
 6.951573E+0001  1.143402E+0000  5.344561E+0001 0
-6.763699E+0001  7.309967E+0000  5.345742E+0001 0
 6.392631E+0001  1.298371E+0001  5.503148E+0001 0
 5.970958E+0001  2.485400E+0001  5.315147E+0001 0
-2.910397E+0001  5.904961E+0001  5.433164E+0001 0
 2.753746E+0001  5.842609E+0001  5.663268E+0001 0
 2.026092E+0001  6.354924E+0001  5.523999E+0001 0
-1.912011E+0001 -1.026730E+0002  5.476553E+0001 0
 1.397863E+0001 -1.023952E+0002  5.589255E+0001 0
 1.780131E+0001 -1.020895E+0002  5.517981E+0001 0
-3.111408E+0001 -9.967598E+0001  5.496061E+0001 0
-4.930346E+0001 -8.975186E+0001  5.582844E+0001 0
-6.558256E+0001 -7.242739E+0001  5.378155E+0001 0
-7.085647E+0001 -5.886803E+0001  5.600395E+0001 0
-7.323132E+0001 -5.429113E+0001  5.451292E+0001 0
 7.168822E+0001 -4.751968E+0001  5.632811E+0001 0
-7.635737E+0001 -3.967500E+0001  5.515236E+0001 0
 7.329369E+0001 -2.036123E+0001  5.718675E+0001 0
-7.598170E+0001 -1.897106E+0001  5.430685E+0001 0
 7.013928E+0001 -3.206787E+0000  5.480658E+0001 0
-6.998923E+0001 -2.295631E+0000  5.567067E+0001 0
 6.660152E+0001  1.501495E+0000  5.757329E+0001 0
-6.849651E+0001  2.247055E+0000  5.535939E+0001 0
 6.605461E+0001  7.239334E+0000  5.539970E+0001 0
-5.830031E+0001  2.214978E+0001  5.666170E+0001 0
 4.725407E+0001  4.037285E+0001  5.646069E+0001 0
 3.974066E+0001  5.021553E+0001  5.501326E+0001 0
-3.360024E+0001  5.441248E+0001  5.584050E+0001 0
-1.515178E+0001  6.601129E+0001  5.445168E+0001 0
 1.095111E+0001  6.721902E+0001  5.469180E+0001 0
 1.061340E+0000  6.763470E+0001  5.569618E+0001 0
-8.268471E+0000 -1.030569E+0002  5.686246E+0001 0
 2.450439E+0000 -1.047451E+0002  5.404529E+0001 0
-6.152718E+0001 -7.721801E+0001  5.519041E+0001 0
 7.385629E+0001 -1.615473E+0001  5.471407E+0001 0
-7.203568E+0001 -9.725136E+0000  5.645430E+0001 0
-6.359781E+0001  1.193345E+0001  5.641489E+0001 0
-5.629200E+0001  2.774692E+0001  5.519385E+0001 0
 5.622447E+0001  2.727483E+0001  5.622836E+0001 0
 5.203854E+0001  3.227042E+0001  5.762901E+0001 0
 4.221834E+0001  4.631294E+0001  5.626790E+0001 0
 3.420761E+0001  5.254735E+0001  5.762424E+0001 0
-2.263111E+0001  6.070273E+0001  5.676015E+0001 0
-1.763203E+0001  6.329112E+0001  5.657193E+0001 0
 1.505392E+0001  6.642441E+0001  5.427589E+0001 0
-3.709833E+0001 -9.573833E+0001  5.762535E+0001 0
 2.862480E+0001 -9.759890E+0001  5.769467E+0001 0
-5.297313E+0001 -8.361783E+0001  5.961409E+0001 0
-6.442596E+0001 -7.073944E+0001  5.765770E+0001 0
-6.894634E+0001 -6.321021E+0001  5.627370E+0001 0
-7.334544E+0001 -5.095406E+0001  5.609222E+0001 0
 7.417795E+0001 -3.879104E+0001  5.551123E+0001 0
-7.402045E+0001 -1.888504E+0001  5.753607E+0001 0
-6.089422E+0001  1.657562E+0001  5.710327E+0001 0
 5.907408E+0001  1.994504E+0001  5.740582E+0001 0
-3.861446E+0001  4.805560E+0001  5.757248E+0001 0
-1.317985E+0001 -1.022405E+0002  5.729646E+0001 0
-1.264122E+0000 -1.030957E+0002  5.714825E+0001 0
-2.387809E+0001 -9.940215E+0001  5.864241E+0001 0
-3.207844E+0001 -9.748752E+0001  5.810651E+0001 0
-4.346923E+0001 -9.176498E+0001  5.866641E+0001 0
-5.720255E+0001 -8.155482E+0001  5.667815E+0001 0
 5.537909E+0001 -7.802973E+0001  5.890042E+0001 0
-6.627807E+0001 -6.626607E+0001  5.854703E+0001 0
 6.687904E+0001 -6.065457E+0001  5.717804E+0001 0
 6.979156E+0001 -5.183499E+0001  5.759866E+0001 0
-7.284979E+0001 -4.768719E+0001  5.834764E+0001 0
-7.436937E+0001 -4.263672E+0001  5.771670E+0001 0
 7.131280E+0001 -4.052441E+0001  5.977554E+0001 0
-7.603945E+0001 -3.005265E+0001  5.709842E+0001 0
 7.342613E+0001 -2.934097E+0001  5.862743E+0001 0
 6.833600E+0001 -8.365738E+0000  5.990282E+0001 0
-6.509479E+0001  3.379517E+0000  5.949977E+0001 0
-4.925780E+0001  3.525049E+0001  5.797546E+0001 0
-4.619944E+0001  3.996068E+0001  5.745197E+0001 0
 1.402912E+0001  6.333046E+0001  5.844612E+0001 0
 7.053406E+0000  6.505441E+0001  5.828575E+0001 0
-5.762558E+0000  6.560825E+0001  5.766974E+0001 0
-1.785805E+0001 -1.006581E+0002  5.868863E+0001 0
 1.776638E+0001 -9.980916E+0001  5.915579E+0001 0
 2.277962E+0001 -9.904177E+0001  5.843910E+0001 0
-2.892890E+0001 -9.776250E+0001  5.920171E+0001 0
 4.210997E+0001 -8.902024E+0001  6.036313E+0001 0
 5.006555E+0001 -8.431137E+0001  5.815063E+0001 0
-5.751253E+0001 -7.861704E+0001  5.964478E+0001 0
 5.898018E+0001 -7.317290E+0001  5.905911E+0001 0
 6.167775E+0001 -6.865902E+0001  5.908333E+0001 0
 6.431215E+0001 -6.375800E+0001  5.910446E+0001 0
 6.785434E+0001 -5.570255E+0001  5.869750E+0001 0
-7.136207E+0001 -5.353635E+0001  5.833049E+0001 0
 7.271103E+0001 -3.462981E+0001  5.927477E+0001 0
 7.362361E+0001 -2.494740E+0001  5.794931E+0001 0
-7.367740E+0001 -2.655585E+0001  6.045256E+0001 0
 7.152666E+0001 -1.433004E+0001  5.798419E+0001 0
 6.253435E+0001  7.846436E+0000  5.986592E+0001 0
-5.335424E+0001  2.790825E+0001  5.884471E+0001 0
 3.984013E+0001  4.304341E+0001  6.152353E+0001 0
-1.307143E+0001  6.241238E+0001  5.948109E+0001 0
 3.250267E+0000 -1.018557E+0002  5.909738E+0001 0
-5.996101E+0001 -7.395133E+0001  6.124289E+0001 0
-6.884671E+0001 -5.723022E+0001  6.060510E+0001 0
-7.387133E+0001 -3.738825E+0001  5.989961E+0001 0
-7.094350E+0001 -1.544841E+0001  6.086620E+0001 0
-6.894723E+0001 -7.420128E+0000  5.997772E+0001 0
 6.043008E+0001  1.315582E+0001  5.975380E+0001 0
-6.049300E+0001  1.301440E+0001  5.995960E+0001 0
 5.370296E+0001  2.484425E+0001  6.084177E+0001 0
-4.207644E+0001  4.257661E+0001  5.921822E+0001 0
 3.832452E+0001  4.871843E+0001  5.770851E+0001 0
-2.721921E+0001  5.555661E+0001  5.937665E+0001 0
 2.080557E+0001  5.803152E+0001  6.121458E+0001 0
-1.021849E+0001 -1.010345E+0002  6.011133E+0001 0
-1.485356E+0001 -9.903435E+0001  6.218280E+0001 0
 1.185235E+0001 -9.956910E+0001  6.138489E+0001 0
 3.311081E+0001 -9.296283E+0001  6.200429E+0001 0
 3.760388E+0001 -9.318422E+0001  5.873172E+0001 0
-6.590812E+0001 -6.183878E+0001  6.230151E+0001 0
 6.700830E+0001 -4.863754E+0001  6.324786E+0001 0
-7.155708E+0001 -4.389770E+0001  6.187335E+0001 0
-7.468490E+0001 -3.224028E+0001  5.941989E+0001 0
 7.072362E+0001 -2.536151E+0001  6.237654E+0001 0
-6.700728E+0001 -2.175362E+0000  5.997281E+0001 0
-6.121926E+0001  7.669144E+0000  6.211968E+0001 0
-5.798360E+0001  1.663338E+0001  6.096095E+0001 0
 4.698772E+0001  3.402241E+0001  6.185414E+0001 0
-3.222636E+0001  5.081079E+0001  6.039481E+0001 0
 2.736487E+0001  5.269727E+0001  6.260411E+0001 0
-1.934602E+0001  5.731429E+0001  6.213725E+0001 0
-1.787582E+0001  6.077393E+0001  5.934416E+0001 0
 3.237990E-0001  6.343892E+0001  6.063753E+0001 0
-7.200417E+0000 -9.971502E+0001  6.259038E+0001 0
 2.997742E+0000 -9.958199E+0001  6.277249E+0001 0
 2.549843E+0001 -9.577416E+0001  6.228464E+0001 0
-3.257017E+0001 -9.457918E+0001  6.212183E+0001 0
-3.782506E+0001 -9.154114E+0001  6.318605E+0001 0
-4.648294E+0001 -8.682523E+0001  6.258720E+0001 0
 4.824457E+0001 -8.255355E+0001  6.248169E+0001 0
-6.244403E+0001 -6.859403E+0001  6.256044E+0001 0
 6.204387E+0001 -6.303680E+0001  6.297313E+0001 0
 6.473770E+0001 -5.806025E+0001  6.218935E+0001 0
 7.091841E+0001 -3.069466E+0001  6.256737E+0001 0
 6.890926E+0001 -1.775459E+0001  6.282948E+0001 0
 6.474152E+0001 -2.260078E+0000  6.185034E+0001 0
 5.668759E+0001  1.706189E+0001  6.204605E+0001 0
-4.312651E+0001  3.837578E+0001  6.166408E+0001 0
 3.638645E+0001  4.710416E+0001  6.094223E+0001 0
 1.159753E+0001  6.001601E+0001  6.276527E+0001 0
-2.016301E+0001 -9.862447E+0001  6.125980E+0001 0
 2.112382E+0001 -9.705957E+0001  6.230687E+0001 0
-2.774765E+0001 -9.478980E+0001  6.411148E+0001 0
-4.221553E+0001 -8.946656E+0001  6.289381E+0001 0
 5.648343E+0001 -7.249149E+0001  6.310153E+0001 0
-6.907366E+0001 -5.150156E+0001  6.299915E+0001 0
 6.973444E+0001 -3.461359E+0001  6.379553E+0001 0
-7.143315E+0001 -3.122817E+0001  6.408372E+0001 0
-7.165292E+0001 -2.185883E+0001  6.237671E+0001 0
-6.836194E+0001 -1.305616E+0001  6.332369E+0001 0
-5.480563E+0001  2.125125E+0001  6.188919E+0001 0
-4.683831E+0001  3.163428E+0001  6.322859E+0001 0
 4.260467E+0001  3.735146E+0001  6.346973E+0001 0
-3.884021E+0001  4.287724E+0001  6.189270E+0001 0
-3.427189E+0001  4.598743E+0001  6.299771E+0001 0
 3.130047E+0001  4.760521E+0001  6.439002E+0001 0
 1.596477E+0001  5.950339E+0001  6.195827E+0001 0
-6.317245E+0000  6.188789E+0001  6.179723E+0001 0
 5.945152E+0000  6.132910E+0001  6.254752E+0001 0
-2.222081E+0001 -9.606710E+0001  6.441324E+0001 0
 3.787118E+0001 -8.756677E+0001  6.582342E+0001 0
 4.278798E+0001 -8.484342E+0001  6.514151E+0001 0
-4.845896E+0001 -8.311633E+0001  6.517307E+0001 0
-5.146794E+0001 -7.898463E+0001  6.643242E+0001 0
-5.539542E+0001 -7.746642E+0001  6.360998E+0001 0
 5.946387E+0001 -6.697945E+0001  6.371664E+0001 0
-7.100757E+0001 -3.575665E+0001  6.441501E+0001 0
-6.883145E+0001 -1.915290E+0001  6.517493E+0001 0
 6.518402E+0001 -1.212805E+0001  6.547878E+0001 0
-6.665563E+0001 -8.129501E+0000  6.335480E+0001 0
 6.003465E+0001  2.654877E+0000  6.517493E+0001 0
 5.711752E+0001  9.765793E+0000  6.525809E+0001 0
-5.735625E+0001  1.192088E+0001  6.444871E+0001 0
-5.108400E+0001  2.576623E+0001  6.307433E+0001 0
 4.875030E+0001  2.742949E+0001  6.450913E+0001 0
-2.524545E+0001  5.024577E+0001  6.536882E+0001 0
-1.452267E+0001  5.880335E+0001  6.279031E+0001 0
 9.323410E+0000 -9.650399E+0001  6.672064E+0001 0
 1.667026E+0001 -9.604193E+0001  6.544760E+0001 0
 5.147765E+0001 -7.774985E+0001  6.424712E+0001 0
-6.647093E+0001 -5.659944E+0001  6.469064E+0001 0
-6.946106E+0001 -4.046619E+0001  6.571742E+0001 0
 6.768790E+0001 -3.981282E+0001  6.541881E+0001 0
 6.775713E+0001 -2.898083E+0001  6.670041E+0001 0
-6.893229E+0001 -2.472912E+0001  6.662396E+0001 0
-6.405777E+0001 -5.371307E+0000  6.524091E+0001 0
 6.144669E+0001 -5.131264E+0000  6.686079E+0001 0
-6.123064E+0001  5.927580E-0001  6.574860E+0001 0
-5.496616E+0001  1.694261E+0001  6.439415E+0001 0
-5.109992E+0001  2.105318E+0001  6.604852E+0001 0
-3.650030E+0001  3.995572E+0001  6.589500E+0001 0
 3.448759E+0001  4.409578E+0001  6.501395E+0001 0
 3.700575E+0001  3.958813E+0001  6.642790E+0001 0
 2.261216E+0001  5.237405E+0001  6.566696E+0001 0
 1.698717E+0001  5.411443E+0001  6.652324E+0001 0
-9.364487E+0000  5.891649E+0001  6.413797E+0001 0
-4.022750E-0001  5.849065E+0001  6.552144E+0001 0
 7.736214E+0000  5.736874E+0001  6.614651E+0001 0
 2.323679E+0001 -9.316334E+0001  6.696292E+0001 0
 2.828711E+0001 -9.192983E+0001  6.628809E+0001 0
-6.134499E+0001 -6.493145E+0001  6.670773E+0001 0
 6.216199E+0001 -5.693059E+0001  6.643332E+0001 0
 6.416359E+0001 -5.316894E+0001  6.556029E+0001 0
-6.727176E+0001 -4.788561E+0001  6.686583E+0001 0
 6.645161E+0001 -2.366273E+0001  6.759178E+0001 0
-5.746804E+0001  5.598389E+0000  6.755008E+0001 0
 5.171234E+0001  1.822371E+0001  6.671983E+0001 0
-4.641847E+0001  2.599939E+0001  6.753888E+0001 0
-4.066298E+0001  3.502290E+0001  6.628401E+0001 0
-1.829627E+0001  5.375830E+0001  6.610761E+0001 0
-1.309586E+0001  5.511472E+0001  6.668188E+0001 0
-1.715008E+0001 -9.450105E+0001  6.825209E+0001 0
-3.997941E+0001 -8.704185E+0001  6.744803E+0001 0
-5.664944E+0001 -7.201385E+0001  6.709686E+0001 0
 5.577562E+0001 -6.768431E+0001  6.787512E+0001 0
-6.533305E+0001 -1.364804E+0001  6.728093E+0001 0
 4.397424E+0001  2.975246E+0001  6.741548E+0001 0
 1.201254E+0001  5.527357E+0001  6.720316E+0001 0
-1.168152E+0001 -9.683398E+0001  6.643680E+0001 0
-5.626335E+0000 -9.660008E+0001  6.746130E+0001 0
-3.242537E+0001 -9.004514E+0001  6.823824E+0001 0
 3.238837E+0001 -8.814891E+0001  6.878200E+0001 0
-4.450911E+0001 -8.423357E+0001  6.740939E+0001 0
 4.547977E+0001 -8.024473E+0001  6.774190E+0001 0
 5.055539E+0001 -7.408854E+0001  6.856174E+0001 0
 5.945372E+0001 -6.186351E+0001  6.719055E+0001 0
-6.480824E+0001 -5.364006E+0001  6.821758E+0001 0
-6.878564E+0001 -3.472688E+0001  6.743410E+0001 0
 6.559050E+0001 -3.410131E+0001  6.886775E+0001 0
-6.758280E+0001 -3.031662E+0001  6.892119E+0001 0
 6.322652E+0001 -1.808652E+0001  6.961151E+0001 0
-5.226306E+0001  1.525375E+0001  6.810518E+0001 0
 4.675438E+0001  2.277402E+0001  6.906876E+0001 0
 3.946173E+0001  3.405809E+0001  6.833339E+0001 0
-3.110554E+0001  4.391638E+0001  6.681679E+0001 0
 2.579269E+0001  4.708920E+0001  6.811313E+0001 0
 2.378990E+0000 -9.598642E+0001  6.840869E+0001 0
 1.898695E+0001 -9.284719E+0001  6.911475E+0001 0
-2.467758E+0001 -9.180110E+0001  6.938164E+0001 0
-4.631384E+0001 -8.052350E+0001  6.970177E+0001 0
-6.307019E+0001 -5.884676E+0001  6.812346E+0001 0
 6.239099E+0001 -5.106294E+0001  6.868700E+0001 0
-6.571868E+0001 -4.485381E+0001  6.972479E+0001 0
 6.305901E+0001 -4.415852E+0001  7.002341E+0001 0
-6.244166E+0001 -9.967712E+0000  6.914471E+0001 0
 6.065860E+0001 -1.158187E+0001  7.018234E+0001 0
-6.012229E+0001 -5.312416E+0000  6.968413E+0001 0
 5.391434E+0001  5.741028E+0000  7.031017E+0001 0
 5.100821E+0001  1.030989E+0001  7.109315E+0001 0
-5.346215E+0001  1.000502E+0001  6.959555E+0001 0
-4.119406E+0001  2.938947E+0001  6.971664E+0001 0
-2.694321E+0001  4.405516E+0001  6.930953E+0001 0
 3.097900E+0001  4.083019E+0001  6.957443E+0001 0
-1.611706E+0001  5.040523E+0001  6.968085E+0001 0
-6.076096E+0000  5.500107E+0001  6.839130E+0001 0
-1.175334E+0001 -9.381345E+0001  7.056540E+0001 0
 1.146854E+0001 -9.267651E+0001  7.141997E+0001 0
 1.559947E+0001 -9.385826E+0001  6.894765E+0001 0
 3.632577E+0001 -8.457910E+0001  7.040457E+0001 0
 4.033807E+0001 -8.348055E+0001  6.867877E+0001 0
 4.531523E+0001 -7.689426E+0001  7.118515E+0001 0
 5.924779E+0001 -5.663397E+0001  7.021339E+0001 0
 3.560750E+0001  3.426500E+0001  7.094058E+0001 0
 2.108645E+0001  4.909116E+0001  6.898614E+0001 0
 8.649078E+0000  5.328915E+0001  6.962767E+0001 0
-1.495010E+0000  5.311881E+0001  7.041699E+0001 0
 3.895699E+0000  5.342915E+0001  7.002216E+0001 0
-4.610237E+0000 -9.258815E+0001  7.289651E+0001 0
 6.786133E+0000 -9.458590E+0001  6.993475E+0001 0
 2.783563E+0001 -8.894463E+0001  7.028781E+0001 0
-4.044550E+0001 -8.321452E+0001  7.140797E+0001 0
-5.132304E+0001 -7.349772E+0001  7.142168E+0001 0
-5.810651E+0001 -6.421568E+0001  7.094870E+0001 0
 5.617136E+0001 -6.187231E+0001  7.114265E+0001 0
-6.073586E+0001 -4.964719E+0001  7.408124E+0001 0
-6.507300E+0001 -3.762539E+0001  7.140279E+0001 0
-6.494370E+0001 -1.990034E+0001  6.998610E+0001 0
-5.729393E+0001  1.144870E-0001  7.032439E+0001 0
 5.437651E+0001  3.444900E-0001  7.198613E+0001 0
-4.618385E+0001  1.942160E+0001  7.152393E+0001 0
 4.322522E+0001  2.507881E+0001  7.071515E+0001 0
-3.516211E+0001  3.219200E+0001  7.217157E+0001 0
-3.105327E+0001  3.850577E+0001  7.063078E+0001 0
-7.545975E+0000  4.933130E+0001  7.267844E+0001 0
 1.222135E+0001  5.046550E+0001  7.102876E+0001 0
 3.843605E+0000 -9.291705E+0001  7.235877E+0001 0
 2.341728E+0001 -8.886224E+0001  7.233000E+0001 0
-2.810488E+0001 -8.705909E+0001  7.370403E+0001 0
-3.531881E+0001 -8.556381E+0001  7.201434E+0001 0
 4.046207E+0001 -7.971391E+0001  7.240207E+0001 0
-5.535691E+0001 -6.939273E+0001  7.064366E+0001 0
 5.057196E+0001 -7.013647E+0001  7.172917E+0001 0
-5.926905E+0001 -5.727314E+0001  7.317928E+0001 0
 6.216205E+0001 -2.522102E+0001  7.225011E+0001 0
-6.017756E+0001 -1.345567E+0001  7.276479E+0001 0
 5.627203E+0001 -6.701187E+0000  7.281570E+0001 0
-5.298702E+0001  2.307846E+0000  7.355260E+0001 0
-4.889208E+0001  1.385183E+0001  7.202470E+0001 0
-4.111746E+0001  2.408757E+0001  7.303828E+0001 0
 3.949538E+0001  2.907542E+0001  7.131502E+0001 0
-2.089069E+0001  4.500192E+0001  7.170798E+0001 0
 1.690627E+0001  4.734087E+0001  7.192178E+0001 0
-1.537312E+0001 -9.179319E+0001  7.230753E+0001 0
 1.560199E+0001 -9.163033E+0001  7.174530E+0001 0
-1.983669E+0001 -9.001386E+0001  7.318890E+0001 0
 1.874625E+0001 -8.960611E+0001  7.317865E+0001 0
-4.615821E+0001 -7.640915E+0001  7.369014E+0001 0
 4.452931E+0001 -7.373558E+0001  7.437454E+0001 0
 5.244604E+0001 -6.563920E+0001  7.289520E+0001 0
 5.864427E+0001 -5.171333E+0001  7.286523E+0001 0
 6.053302E+0001 -3.870851E+0001  7.379082E+0001 0
-6.259925E+0001 -2.737380E+0001  7.378917E+0001 0
 4.685998E+0001  1.604916E+0001  7.212645E+0001 0
 4.345007E+0001  2.070012E+0001  7.261234E+0001 0
 3.168902E+0001  3.428032E+0001  7.330440E+0001 0
-2.605904E+0001  3.942423E+0001  7.296840E+0001 0
 2.515810E+0001  4.183606E+0001  7.209767E+0001 0
 2.118475E+0001  4.463560E+0001  7.209644E+0001 0
 6.853844E+0000  4.869151E+0001  7.339545E+0001 0
 2.825243E+0001 -8.508516E+0001  7.438692E+0001 0
 3.289364E+0001 -8.512380E+0001  7.198969E+0001 0
 3.457724E+0001 -8.124403E+0001  7.486789E+0001 0
-5.422441E+0001 -6.697388E+0001  7.337604E+0001 0
 5.585063E+0001 -5.700638E+0001  7.385808E+0001 0
 5.887076E+0001 -4.610849E+0001  7.424373E+0001 0
-6.307473E+0001 -4.360150E+0001  7.306419E+0001 0
-6.013752E+0001 -3.525695E+0001  7.661999E+0001 0
-5.642356E+0001 -4.239456E+0000  7.303207E+0001 0
-4.850455E+0001  9.378250E+0000  7.441002E+0001 0
 3.925403E+0001  2.416881E+0001  7.393338E+0001 0
 2.683990E+0001  3.708676E+0001  7.419917E+0001 0
-1.347367E+0001  4.390028E+0001  7.526465E+0001 0
 4.716570E-0001  4.850087E+0001  7.391066E+0001 0
 2.056937E+0001 -8.571747E+0001  7.694199E+0001 0
-4.124175E+0001 -7.879910E+0001  7.514392E+0001 0
-5.855477E+0001 -4.162086E+0001  7.783011E+0001 0
 6.107086E+0001 -3.170566E+0001  7.369145E+0001 0
 5.964963E+0001 -1.963406E+0001  7.370392E+0001 0
 5.825255E+0001 -1.548613E+0001  7.379335E+0001 0
-6.145604E+0001 -2.046082E+0001  7.379912E+0001 0
 5.719470E+0001 -1.133668E+0001  7.352124E+0001 0
 4.849200E+0001  3.308197E+0000  7.597803E+0001 0
 4.655304E+0001  9.506531E+0000  7.511247E+0001 0
-3.561129E+0001  2.612865E+0001  7.568349E+0001 0
 3.489704E+0001  2.879523E+0001  7.439198E+0001 0
-2.804041E+0001  3.309047E+0001  7.596220E+0001 0
 2.103231E+0001  3.994595E+0001  7.519629E+0001 0
 1.122445E+0001  4.476904E+0001  7.532826E+0001 0
-1.394259E+0001 -8.855722E+0001  7.630412E+0001 0
 1.496272E+0001 -8.805554E+0001  7.610345E+0001 0
-2.215105E+0001 -8.636247E+0001  7.661632E+0001 0
-3.423652E+0001 -8.186254E+0001  7.628804E+0001 0
-4.780169E+0001 -7.187660E+0001  7.581398E+0001 0
-5.320732E+0001 -6.224571E+0001  7.693666E+0001 0
 5.176363E+0001 -5.959848E+0001  7.672005E+0001 0
 5.097556E+0001 -4.224602E+0000  7.672137E+0001 0
-4.392437E+0001  1.381407E+0001  7.611876E+0001 0
 4.292653E+0001  1.745550E+0001  7.443788E+0001 0
-4.100574E+0001  1.843712E+0001  7.609915E+0001 0
 2.779691E+0001  2.993840E+0001  7.757018E+0001 0
 1.610599E+0001  4.212982E+0001  7.572737E+0001 0
-1.811034E+0001  4.110371E+0001  7.566200E+0001 0
-8.513321E+0000  4.462280E+0001  7.601411E+0001 0
 1.261971E+0000 -9.003184E+0001  7.594162E+0001 0
 8.582855E+0000 -8.827946E+0001  7.711250E+0001 0
 3.926776E+0001 -7.631726E+0001  7.632439E+0001 0
 4.649779E+0001 -6.847424E+0001  7.652997E+0001 0
-5.083496E+0001 -6.800829E+0001  7.586510E+0001 0
 5.846095E+0001 -4.245277E+0001  7.536470E+0001 0
-5.693944E+0001 -2.033183E+0001  7.788560E+0001 0
 5.391840E+0001 -1.168391E+0001  7.664172E+0001 0
-5.387056E+0001 -9.236687E+0000  7.724954E+0001 0
 4.266923E+0001  1.337753E+0001  7.632410E+0001 0
 3.888298E+0001  1.855003E+0001  7.668739E+0001 0
 3.363852E+0001  2.348292E+0001  7.764664E+0001 0
-3.022149E+0001  2.835251E+0001  7.769269E+0001 0
-2.212723E+0001  3.756990E+0001  7.614879E+0001 0
-4.426926E+0000  4.252379E+0001  7.778622E+0001 0
 3.831169E+0000  4.285834E+0001  7.760423E+0001 0
-6.764420E+0000 -8.692843E+0001  7.918955E+0001 0
-2.463043E+0000 -8.901962E+0001  7.727655E+0001 0
-2.729259E+0001 -8.365276E+0001  7.766036E+0001 0
 2.895706E+0001 -8.122013E+0001  7.794785E+0001 0
 3.612617E+0001 -7.582324E+0001  7.872925E+0001 0
 4.847858E+0001 -6.375103E+0001  7.770326E+0001 0
 5.385898E+0001 -5.182158E+0001  7.763890E+0001 0
-5.756372E+0001 -1.495974E+0001  7.594243E+0001 0
 5.590604E+0001 -1.935337E+0001  7.703255E+0001 0
-5.024901E+0001 -3.226494E+0000  7.826587E+0001 0
-4.638217E+0001  2.063751E+0000  7.917296E+0001 0
-3.651083E+0001  2.103862E+0001  7.779747E+0001 0
 2.210446E+0001  3.469585E+0001  7.774597E+0001 0
 9.963043E+0000  3.825145E+0001  7.959193E+0001 0
 2.240295E+0001 -8.070105E+0001  8.110640E+0001 0
-4.775254E+0001 -6.632185E+0001  7.932047E+0001 0
-5.382122E+0001 -5.456564E+0001  7.944333E+0001 0
 5.564748E+0001 -4.488391E+0001  7.767651E+0001 0
 5.649506E+0001 -4.027074E+0001  7.760200E+0001 0
 5.574690E+0001 -3.497142E+0001  7.873393E+0001 0
-5.874773E+0001 -3.180605E+0001  7.801363E+0001 0
 5.685042E+0001 -2.716885E+0001  7.753560E+0001 0
-5.563661E+0001 -2.882492E+0001  8.061400E+0001 0
-4.239790E+0001  8.787720E+0000  7.936958E+0001 0
 1.691170E+0001  3.655168E+0001  7.877164E+0001 0
-1.755241E+0001  3.546104E+0001  7.931540E+0001 0
-9.029495E+0000  4.206274E+0001  7.758202E+0001 0
 3.201986E+0001 -7.819420E+0001  7.905180E+0001 0
-3.654749E+0001 -7.606606E+0001  8.009998E+0001 0
-4.273341E+0001 -7.226338E+0001  7.918230E+0001 0
 3.956331E+0001 -7.108274E+0001  8.003851E+0001 0
 4.889914E+0001 -9.996910E+0000  8.027423E+0001 0
 4.607007E+0001 -3.246483E+0000  8.018631E+0001 0
 4.393761E+0001  1.292297E+0000  8.007027E+0001 0
 4.217477E+0001  6.774658E+0000  7.920584E+0001 0
 3.616349E+0001  1.244178E+0001  8.076134E+0001 0
-3.097839E+0001  2.350275E+0001  7.985484E+0001 0
-2.310938E+0001  3.328882E+0001  7.839679E+0001 0
 1.460754E+0000 -8.541182E+0001  8.079266E+0001 0
 8.803894E+0000 -8.518635E+0001  8.037787E+0001 0
-1.256927E+0001 -8.312779E+0001  8.202541E+0001 0
-2.139001E+0001 -8.110503E+0001  8.176961E+0001 0
-2.988770E+0001 -7.893779E+0001  8.084680E+0001 0
 4.264565E+0001 -6.538042E+0001  8.139621E+0001 0
-4.843063E+0001 -5.812523E+0001  8.250800E+0001 0
-5.448557E+0001 -4.751882E+0001  8.069054E+0001 0
 5.139189E+0001 -4.621004E+0001  8.123141E+0001 0
-5.503423E+0001 -3.504488E+0001  8.142137E+0001 0
 5.316852E+0001 -2.994002E+0001  8.109642E+0001 0
 5.125371E+0001 -1.572242E+0001  8.015741E+0001 0
 5.132846E+0001 -2.281905E+0001  8.164554E+0001 0
-5.133963E+0001 -1.547032E+0001  8.136320E+0001 0
-5.037264E+0001 -6.741478E+0000  7.948227E+0001 0
-3.574088E+0001  1.383396E+0001  8.147613E+0001 0
 3.311839E+0001  1.849738E+0001  8.009695E+0001 0
 2.599719E+0001  2.292581E+0001  8.162352E+0001 0
-2.435664E+0001  3.024896E+0001  7.957031E+0001 0
 2.039365E+0001  2.953708E+0001  8.111287E+0001 0
-9.696991E+0000  3.826135E+0001  7.973997E+0001 0
-6.097950E-0001  3.934085E+0001  8.001895E+0001 0
 3.004456E+0000  3.636259E+0001  8.157202E+0001 0
 1.496214E+0001 -8.393428E+0001  8.038599E+0001 0
 2.782125E+0001 -7.826099E+0001  8.107700E+0001 0
 4.838126E+0001 -5.606498E+0001  8.113702E+0001 0
 5.271553E+0001 -4.082069E+0001  8.092076E+0001 0
-5.372050E+0001 -2.492035E+0001  8.165672E+0001 0
-5.116692E+0001 -2.071104E+0001  8.278886E+0001 0
 4.383093E+0001 -8.914680E+0000  8.350993E+0001 0
-4.773046E+0001 -7.842354E+0000  8.179305E+0001 0
-2.454948E+0001  2.607384E+0001  8.171875E+0001 0
 1.438544E+0001  3.152402E+0001  8.213390E+0001 0
-3.149170E+0000  3.573244E+0001  8.189482E+0001 0
-5.659050E+0000 -8.083105E+0001  8.470456E+0001 0
 3.214732E+0001 -7.332089E+0001  8.278386E+0001 0
-4.401477E+0001 -6.452405E+0001  8.281422E+0001 0
-4.050778E+0001 -6.777848E+0001  8.333995E+0001 0
 4.574973E+0001 -6.060465E+0001  8.146417E+0001 0
 4.871251E+0001 -5.138946E+0001  8.226152E+0001 0
-5.208838E+0001 -4.176791E+0001  8.344095E+0001 0
 4.677029E+0001 -1.692136E+0001  8.374023E+0001 0
-4.445022E+0001 -3.610840E+0000  8.277246E+0001 0
 4.105896E+0001 -2.494690E+0000  8.327927E+0001 0
 4.019188E+0001  2.814514E+0000  8.197200E+0001 0
-4.112642E+0001  4.134674E+0000  8.210042E+0001 0
-1.993958E+0001  2.916142E+0001  8.201193E+0001 0
-1.220095E+0001  3.483675E+0001  8.131772E+0001 0
-6.357430E+0000  3.249260E+0001  8.331213E+0001 0
 8.595032E+0000 -8.173029E+0001  8.349910E+0001 0
-3.648542E+0001 -7.005090E+0001  8.409757E+0001 0
 4.307001E+0001 -5.527861E+0001  8.521695E+0001 0
-4.989145E+0001 -4.947623E+0001  8.391925E+0001 0
 5.035443E+0001 -3.579863E+0001  8.324219E+0001 0
-4.167739E+0001 -7.906800E-0001  8.356429E+0001 0
 3.666327E+0001  6.756470E+0000  8.264104E+0001 0
-3.844454E+0001  7.019806E+0000  8.271190E+0001 0
 2.820462E+0001  1.603064E+0001  8.340570E+0001 0
-2.782660E+0001  2.054794E+0001  8.286583E+0001 0
-1.351500E+0001  2.984805E+0001  8.351537E+0001 0
 7.297646E+0000  3.072588E+0001  8.395399E+0001 0
 1.532605E+0001 -7.991234E+0001  8.390140E+0001 0
-1.572664E+0001 -8.026512E+0001  8.393127E+0001 0
-2.663168E+0001 -7.587916E+0001  8.442734E+0001 0
 2.555460E+0001 -7.609266E+0001  8.376453E+0001 0
-3.145397E+0001 -7.336588E+0001  8.427100E+0001 0
 4.057718E+0001 -6.160444E+0001  8.463722E+0001 0
 4.642638E+0001 -4.744859E+0001  8.480946E+0001 0
 4.838591E+0001 -4.177969E+0001  8.424260E+0001 0
-4.825560E+0001 -3.576032E+0001  8.642024E+0001 0
 4.863716E+0001 -2.980111E+0001  8.446573E+0001 0
-5.106546E+0001 -3.100108E+0001  8.451833E+0001 0
-5.054479E+0001 -2.619082E+0001  8.429459E+0001 0
-4.602207E+0001 -1.510104E+0001  8.515067E+0001 0
-3.604225E+0001  3.397751E+0000  8.541058E+0001 0
-3.065295E+0001  1.526625E+0001  8.378214E+0001 0
-1.739428E+0001  2.470087E+0001  8.499768E+0001 0
 1.193215E+0001  2.794989E+0001  8.444119E+0001 0
 3.430630E-0001  2.997768E+0001  8.483830E+0001 0
 1.970357E+0001 -7.474120E+0001  8.662817E+0001 0
