#!ascii version written be Caret
6138 12272
3575 3315 3519 0
3311 3139 3576 0
3461 3251 3457 0
3577 3318 3461 0
3319 3315 3575 0
3578 3577 3461 0
3576 3139 3386 0
3577 3578 3579 0
3321 3458 3317 0
3320 3520 3322 0
3462 3388 3253 0
3388 3462 3580 0
3388 3581 3321 0
3387 3257 3463 0
3580 3581 3388 0
3525 3464 3076 0
3211 3523 3525 0
3525 3524 3464 0
3155 3391 3526 0
3391 3328 3582 0
3468 3330 3527 0
3473 3528 3583 0
3474 3334 3159 0
3159 3529 3474 0
3469 3584 3330 0
3334 3475 3396 0
3585 3531 3475 0
3271 3396 3335 0
3478 3219 3163 0
3586 3219 3478 0
3478 3477 3587 0
3400 3399 3533 0
3338 3220 3335 0
3535 3476 3398 0
3398 3402 3535 0
3588 3338 3476 0
3535 3588 3476 0
3338 3589 3480 0
3587 3590 3478 0
3340 3587 3477 0
3588 3589 3338 0
3591 3589 3588 0
3588 3535 3591 0
3592 3479 3533 0
3593 3592 3533 0
3340 3537 3594 0
3479 3595 3596 0
3597 3342 3341 0
3342 3597 3537 0
3403 3337 3598 0
3481 3536 3223 0
3599 3343 3403 0
3168 3343 3538 0
3406 3600 3481 0
3276 3406 3481 0
3601 3407 3225 0
3407 3602 3406 0
3603 3540 2516 0
3174 3485 3348 0
3544 3415 3413 0
3280 3281 3103 0
3604 3351 3352 0
3490 3229 3417 0
3417 3550 3490 0
3352 3416 3605 0
3423 3551 3357 0
3420 3606 3423 0
3491 3607 3419 0
3358 3552 3555 0
3290 3292 3424 0
3427 3555 3559 0
3608 3557 3561 0
3195 3492 3609 0
3360 3362 3553 0
3429 3425 3292 0
3556 3562 3360 0
3610 3236 3562 0
3239 3563 3241 0
3611 3433 3493 0
3493 3563 3611 0
3612 3611 3563 0
3563 3613 3612 0
3563 3614 3613 0
3496 3501 3296 0
3615 3497 3498 0
3616 3436 3501 0
3617 3495 3502 0
3502 3618 3617 0
3502 3499 3618 0
3615 3498 3243 0
3505 3298 3370 0
3619 3504 3369 0
3369 3566 3619 0
3506 3503 3374 0
3248 3514 3304 0
3303 3300 3567 0
3300 3504 3567 0
3620 3442 3508 0
3380 3567 3568 0
3506 3621 3622 0
3507 3623 3621 0
3621 3506 3507 0
3621 3623 3622 0
3515 3447 3624 0
3625 3622 3623 0
3516 3573 3382 0
3515 3624 3516 0
3517 3518 3305 0
3518 3517 3626 0
3626 3513 3518 0
3627 3383 3448 0
3628 3569 3570 0
3627 3451 3383 0
3629 3457 3451 0
3460 3458 3521 0
3630 3576 3386 0
3386 3256 3630 0
3577 3254 3318 0
3462 3522 3631 0
3254 3577 3522 0
3632 3630 3256 0
3256 3258 3632 0
3633 3523 3322 0
3258 3387 3632 0
3634 3526 3391 0
3635 3634 3391 0
3467 3582 3328 0
3582 3467 3636 0
3466 3527 3467 0
3331 3637 3528 0
3331 3465 3637 0
3397 3471 3638 0
3529 3394 3639 0
3639 3394 3395 0
3532 3639 3395 0
3586 3530 3219 0
3586 3478 3590 0
3593 3533 3399 0
3399 3640 3593 0
3399 3641 3640 0
3531 3641 3399 0
3587 3340 3594 0
3642 3535 3534 0
3643 3587 3594 0
3594 3537 3643 0
3644 3479 3596 0
3598 3599 3403 0
3404 3405 3645 0
3646 3537 3597 0
3647 3536 3481 0
3481 3600 3647 0
3343 3599 3538 0
3404 3648 3482 0
3602 3600 3406 0
3602 3407 3649 0
3409 3173 3541 0
3650 3409 3541 0
3409 3484 3172 0
3486 3651 3226 0
3226 3651 3652 0
3485 3484 3653 0
3348 3485 3653 0
3487 3651 3486 0
3654 3349 3226 0
3655 3603 2516 0
2516 3412 3655 0
3656 3655 3412 0
3414 3657 3544 0
3658 3415 3544 0
3604 3545 3351 0
3659 3284 3415 0
3658 3659 3415 0
3284 3659 3354 0
3605 3604 3352 0
3417 3418 3660 0
3354 3660 3418 0
3419 3605 3416 0
3420 3549 3606 0
3425 3424 3292 0
3491 3195 3609 0
3559 3555 3561 0
3242 3564 3238 0
3661 3242 3236 0
3661 3564 3242 0
3614 3239 3564 0
3563 3239 3614 0
3564 3662 3663 0
3564 3661 3662 0
3614 3564 3664 0
3432 3433 3611 0
3664 3613 3614 0
3665 3612 3613 0
3613 3664 3665 0
3431 3432 3499 0
3666 3501 3667 0
3666 3668 3501 0
3495 3667 3496 0
3501 3668 3616 0
3669 3615 3243 0
3243 3439 3669 0
3670 3438 3436 0
3671 3439 3437 0
3437 3299 3671 0
3508 3438 3672 0
3301 3304 3673 0
3673 3674 3301 0
3675 3445 3444 0
3676 3503 3506 0
3514 3673 3304 0
3514 3569 3673 0
3447 3512 3677 0
3623 3507 3678 0
3679 3506 3622 0
3624 3447 3680 0
3680 3447 3681 0
3622 3682 3679 0
3683 3573 3684 0
3572 3573 3683 0
3513 3626 3571 0
3569 3685 3686 0
3628 3685 3569 0
3687 3628 3570 0
3451 3627 3629 0
3687 3570 3571 0
3687 3571 3688 0
3519 3574 3689 0
3454 3455 3313 0
3450 3384 3452 0
3571 3690 3688 0
3452 3311 3691 0
3692 3456 3453 0
3629 3461 3457 0
3629 3578 3461 0
3578 3629 3579 0
3693 3520 3319 0
3319 3575 3693 0
3694 3695 3696 0
3696 3695 3697 0
3631 3580 3462 0
3631 3581 3580 0
3697 3698 3696 0
3581 3631 3699 0
3697 3632 3387 0
3700 3390 3524 0
3524 3525 3700 0
3582 3635 3391 0
3635 3582 3701 0
3701 3702 3635 0
3637 3465 3703 0
3473 3704 3471 0
3638 3471 3704 0
3705 3638 3704 0
3704 3706 3705 0
3473 3706 3704 0
3639 3707 3529 0
3708 3583 3709 0
3710 3708 3709 0
3711 3710 3709 0
3530 3393 3392 0
3712 3713 3393 0
3393 3530 3712 0
3585 3474 3714 0
3585 3475 3474 0
3586 3712 3530 0
3715 3341 3536 0
3534 3479 3644 0
3644 3642 3534 0
3337 3480 3598 0
3716 3644 3596 0
3717 3538 3599 0
3716 3718 3719 0
3720 3716 3719 0
3718 3721 3719 0
3722 3720 3719 0
3719 3723 3722 0
3719 3724 3723 0
3725 3483 3482 0
3723 3724 3726 0
3602 3649 3727 0
3719 3728 3724 0
3540 3601 3225 0
3407 3601 3649 0
3649 3729 3727 0
3649 3601 3729 0
3408 3730 3541 0
3601 3540 3731 0
3651 3732 3652 0
3733 3652 3732 0
3349 3654 3414 0
3412 3546 3656 0
3659 3660 3354 0
3419 3607 3605 0
3554 3553 3428 0
3492 3734 3609 0
3236 3610 3661 0
3663 3664 3564 0
3735 3364 3434 0
3497 3736 3434 0
3617 3667 3495 0
3737 3499 3432 0
3501 3496 3667 0
3436 3616 3670 0
3299 3503 3671 0
3670 3672 3438 0
3620 3508 3672 0
3370 3301 3674 0
3620 3672 3738 0
3739 3443 3445 0
3567 3504 3619 0
3442 3675 3444 0
3620 3740 3675 0
3675 3442 3620 0
3741 3674 3673 0
3678 3507 3565 0
3742 3623 3678 0
3678 3743 3742 0
3565 3743 3678 0
3744 3742 3743 0
3745 3744 3743 0
3686 3673 3569 0
3682 3676 3679 0
3685 3746 3686 0
3685 3628 3747 0
3748 3448 3572 0
3572 3683 3748 0
3690 3626 3517 0
3571 3626 3690 0
3749 3748 3683 0
3750 3574 3313 0
3628 3687 3747 0
3750 3313 3455 0
3751 3687 3688 0
3690 3751 3688 0
3752 3692 3453 0
3455 3456 3753 0
3456 3692 3753 0
3453 3459 3752 0
3576 3694 3754 0
3695 3694 3576 0
3695 3576 3630 0
3696 3755 3694 0
3696 3698 3755 0
3756 3757 3520 0
3521 3321 3581 0
3697 3630 3632 0
3525 3523 3758 0
3390 3463 3389 0
3700 3759 3390 0
3465 3526 3760 0
3636 3701 3582 0
3526 3634 3760 0
3636 3761 3701 0
3467 3527 3636 0
3762 3634 3702 0
3635 3702 3634 0
3634 3762 3760 0
3760 3762 3703 0
3763 3761 3636 0
3636 3527 3763 0
3762 3702 3764 0
3528 3637 3583 0
3584 3527 3330 0
3765 3584 3469 0
3397 3638 3766 0
3638 3767 3766 0
3705 3767 3638 0
3531 3585 3714 0
3532 3397 3766 0
3590 3768 3586 0
3640 3769 3593 0
3770 3590 3587 0
3771 3591 3535 0
3479 3592 3595 0
3535 3642 3771 0
3772 3595 3773 0
3592 3773 3595 0
3774 3772 3773 0
3589 3598 3480 0
3341 3715 3597 0
3772 3596 3595 0
3644 3716 3642 0
3405 3538 3645 0
3717 3645 3538 0
3715 3775 3597 0
3721 3596 3772 0
3596 3721 3716 0
3776 3642 3716 0
3718 3716 3721 0
3599 3777 3717 0
3645 3648 3404 0
3778 3779 3775 0
3716 3720 3776 0
3780 3539 3483 0
3781 3720 3722 0
3722 3723 3781 0
3782 3781 3723 0
3724 3728 3726 0
3783 3726 3728 0
3650 3541 3730 0
3730 3784 3650 0
3785 3727 3729 0
3731 3729 3601 0
3650 3786 3409 0
3787 3788 3789 0
3789 3790 3787 0
3348 3790 3789 0
3543 3348 3789 0
3789 3788 3543 0
3226 3652 3654 0
3414 3791 3657 0
3791 3414 3654 0
3791 3792 3793 0
3791 3654 3792 0
3791 3793 3794 0
3550 3795 3796 0
3550 3417 3795 0
3660 3797 3417 0
3798 3606 3549 0
3549 3550 3798 0
3423 3606 3798 0
3423 3799 3551 0
3800 3552 3551 0
3609 3607 3491 0
3801 3556 3553 0
3562 3556 3802 0
3556 3801 3802 0
3802 3610 3562 0
3661 3610 3802 0
3662 3661 3802 0
3801 3558 3803 0
3737 3432 3611 0
3612 3737 3611 0
3618 3499 3804 0
3671 3669 3439 0
3671 3805 3669 0
3503 3676 3806 0
3807 3370 3674 0
3443 3739 3566 0
3808 3738 3672 0
3672 3809 3808 0
3672 3670 3809 0
3743 3565 3505 0
3505 3370 3743 0
3675 3810 3445 0
3619 3568 3567 0
3568 3619 3811 0
3807 3743 3370 0
3812 3681 3447 0
3677 3812 3447 0
3742 3744 3813 0
3745 3813 3744 0
3686 3746 3741 0
3741 3673 3686 0
3625 3623 3742 0
3742 3813 3814 0
3573 3516 3684 0
3682 3622 3625 0
3815 3683 3684 0
3681 3812 3680 0
3450 3816 3517 0
3450 3691 3816 0
3817 3749 3683 0
3450 3452 3691 0
3818 3747 3687 0
3627 3819 3629 0
3455 3820 3750 0
3691 3311 3821 0
3689 3575 3519 0
3822 3750 3820 0
3823 3824 3751 0
3751 3690 3823 0
3825 3821 3311 0
3693 3575 3826 0
3753 3820 3455 0
3820 3753 3827 0
3828 3752 3459 0
3576 3825 3311 0
3576 3754 3825 0
3829 3459 3460 0
3521 3829 3460 0
3520 3693 3756 0
3830 3322 3757 0
3322 3520 3757 0
3831 3755 3698 0
3697 3695 3630 0
3830 3633 3322 0
3698 3697 3759 0
3698 3759 3831 0
3633 3830 3757 0
3700 3758 3832 0
3463 3390 3759 0
3465 3760 3703 0
3527 3584 3763 0
3711 3703 3762 0
3762 3710 3711 0
3711 3583 3637 0
3711 3709 3583 0
3637 3703 3711 0
3706 3473 3583 0
3707 3714 3474 0
3474 3529 3707 0
3706 3833 3834 0
3706 3583 3833 0
3469 3393 3835 0
3835 3765 3469 0
3762 3836 3710 0
3837 3708 3710 0
3583 3708 3833 0
3639 3714 3707 0
3708 3838 3839 0
3708 3840 3838 0
3532 3766 3841 0
3531 3714 3641 0
3769 3640 3641 0
3842 3770 3587 0
3592 3593 3773 0
3646 3643 3537 0
3775 3715 3778 0
3778 3647 3600 0
3775 3646 3597 0
3482 3648 3725 0
3843 3725 3648 0
3725 3843 3782 0
3602 3844 3600 0
3723 3845 3782 0
3483 3725 3780 0
3725 3846 3847 0
3725 3782 3846 0
3847 3780 3725 0
3727 3844 3602 0
3408 3539 3730 0
3729 3731 3785 0
3603 3731 3540 0
3848 3785 3731 0
3790 3348 3653 0
3731 3603 3655 0
3786 3484 3409 0
3484 3786 3653 0
3849 3651 3487 0
3850 3542 3543 0
3851 3487 3489 0
3851 3489 3542 0
3793 3852 3794 0
3547 3545 3853 0
3794 3854 3791 0
3545 3604 3853 0
3544 3657 3855 0
3660 3659 3658 0
3856 3660 3658 0
3658 3544 3856 0
3544 3855 3856 0
3417 3857 3795 0
3417 3797 3857 0
3858 3795 3857 0
3795 3859 3796 0
3795 3858 3859 0
3605 3860 3604 0
3796 3861 3550 0
3550 3861 3798 0
3607 3860 3605 0
3799 3423 3798 0
3609 3862 3607 0
3551 3799 3800 0
3800 3863 3552 0
3734 3862 3609 0
3554 3801 3553 0
3554 3558 3801 0
3492 3494 3734 0
3864 3802 3801 0
3801 3803 3864 0
3560 3803 3558 0
3364 3735 3494 0
3737 3612 3865 0
3804 3499 3737 0
3866 3497 3615 0
3615 3669 3867 0
3503 3805 3671 0
3868 3669 3805 0
3445 3810 3739 0
3807 3745 3743 0
3810 3675 3740 0
3506 3679 3676 0
3741 3869 3745 0
3869 3813 3745 0
3814 3625 3742 0
3516 3624 3870 0
3815 3817 3683 0
3817 3871 3749 0
3872 3816 3691 0
3873 3689 3574 0
3873 3574 3750 0
3629 3448 3748 0
3629 3819 3448 0
3748 3874 3629 0
3875 3750 3822 0
3876 3823 3690 0
3821 3872 3691 0
3825 3872 3821 0
3871 3692 3752 0
3824 3877 3878 0
3878 3751 3824 0
3878 3687 3751 0
3818 3687 3878 0
3879 3871 3752 0
3829 3631 3522 0
3880 3694 3755 0
3699 3829 3581 0
3829 3521 3581 0
3387 3463 3697 0
3758 3700 3525 0
3758 3523 3832 0
3463 3759 3697 0
3702 3701 3881 0
3881 3764 3702 0
3764 3881 3882 0
3762 3764 3836 0
3837 3883 3708 0
3841 3766 3767 0
3639 3532 3884 0
3883 3840 3708 0
3840 3883 3885 0
3886 3838 3840 0
3884 3532 3841 0
3641 3714 3887 0
3768 3712 3586 0
3888 3712 3768 0
3885 3886 3840 0
3889 3838 3886 0
3889 3886 3890 0
3889 3890 3891 0
3770 3842 3892 0
3777 3599 3598 0
3598 3893 3777 0
3589 3893 3598 0
3646 3842 3643 0
3647 3715 3536 0
3894 3721 3772 0
3774 3894 3772 0
3778 3715 3647 0
3781 3776 3720 0
3776 3781 3895 0
3896 3719 3721 0
3781 3782 3843 0
3781 3843 3895 0
3600 3897 3778 0
3896 3721 3894 0
3896 3894 3898 0
3896 3728 3719 0
3728 3896 3899 0
3900 3899 3896 0
3901 3539 3780 0
3901 3730 3539 0
3896 3898 3902 0
3844 3727 3785 0
3903 3845 3723 0
3723 3904 3903 0
3723 3726 3904 0
3905 3788 3787 0
3848 3731 3655 0
3788 3905 3906 0
3732 3849 3733 0
3651 3849 3732 0
3788 3906 3907 0
3907 3850 3543 0
3543 3788 3907 0
3851 3849 3487 0
3792 3908 3793 0
3793 3908 3909 0
3791 3854 3657 0
3855 3657 3854 0
3910 3855 3854 0
3797 3660 3857 0
3911 3912 3913 0
3913 3914 3911 0
3914 3915 3798 0
3861 3796 3914 0
3798 3861 3914 0
3915 3916 3798 0
3915 3913 3917 0
3915 3914 3913 0
3911 3914 3796 0
3912 3917 3913 0
3918 3917 3912 0
3916 3917 3919 0
3917 3916 3915 0
3917 3918 3920 0
3921 3555 3552 0
3922 3864 3803 0
3802 3923 3662 0
3802 3864 3923 0
3922 3923 3864 0
3665 3664 3663 0
3924 3665 3663 0
3736 3735 3434 0
3497 3866 3736 0
3925 3666 3667 0
3926 3925 3667 0
3865 3804 3737 0
3668 3666 3927 0
3804 3865 3928 0
3928 3618 3804 0
3929 3930 3617 0
3617 3618 3929 0
3931 3866 3615 0
3615 3867 3931 0
3805 3932 3868 0
3805 3503 3932 0
3933 3809 3670 0
3741 3807 3674 0
3566 3739 3934 0
3935 3566 3934 0
3810 3934 3739 0
3809 3933 3808 0
3741 3745 3807 0
3740 3620 3738 0
3676 3682 3936 0
3937 3869 3741 0
3938 3936 3682 0
3516 3870 3684 0
3812 3939 3680 0
3682 3625 3940 0
3816 3690 3517 0
3690 3816 3876 0
3872 3876 3816 0
3819 3627 3448 0
3871 3748 3749 0
3747 3818 3941 0
3818 3878 3941 0
3942 3575 3689 0
3692 3817 3943 0
3943 3753 3692 0
3871 3817 3692 0
3828 3879 3752 0
3826 3944 3756 0
3756 3693 3826 0
3459 3829 3828 0
3577 3579 3945 0
3946 3944 3826 0
3945 3522 3577 0
3945 3947 3522 0
3522 3947 3829 0
3631 3829 3699 0
3633 3757 3832 0
3831 3759 3700 0
3633 3832 3523 0
3763 3584 3948 0
3764 3949 3836 0
3882 3949 3764 0
3584 3765 3948 0
3836 3837 3710 0
3835 3393 3950 0
3705 3706 3834 0
3834 3833 3708 0
3708 3839 3834 0
3393 3713 3950 0
3951 3834 3839 0
3839 3838 3951 0
3883 3952 3953 0
3883 3837 3952 0
3639 3884 3714 0
3885 3883 3953 0
3884 3954 3714 0
3886 3885 3955 0
3955 3890 3886 0
3589 3591 3893 0
3956 3893 3591 0
3842 3587 3643 0
3591 3771 3956 0
3957 3771 3642 0
3776 3957 3642 0
3958 3842 3646 0
3646 3959 3958 0
3645 3960 3648 0
3645 3717 3960 0
3959 3646 3775 0
3775 3961 3959 0
3600 3844 3897 0
3896 3902 3900 0
3846 3962 3847 0
3963 3780 3847 0
3901 3780 3963 0
3846 3782 3845 0
3903 3964 3845 0
3903 3904 3964 0
3730 3901 3784 0
3844 3965 3966 0
3899 3783 3728 0
3904 3967 3964 0
3904 3726 3967 0
3844 3785 3965 0
3783 3899 3968 0
3790 3969 3970 0
3971 3787 3790 0
3970 3971 3790 0
3969 3653 3786 0
3972 3969 3786 0
3786 3650 3972 0
3973 3849 3851 0
3851 3542 3850 0
3974 3654 3652 0
3547 3656 3546 0
3792 3654 3975 0
3852 3793 3909 0
3909 3976 3852 0
3977 3796 3859 0
3796 3977 3978 0
3979 3980 3912 0
3799 3798 3916 0
3800 3799 3916 0
3916 3863 3800 0
3916 3919 3863 0
3921 3863 3919 0
3863 3921 3552 0
3555 3921 3561 0
3557 3608 3560 0
3981 3494 3735 0
3865 3612 3665 0
3982 3735 3736 0
3928 3929 3618 0
3867 3669 3868 0
3619 3566 3983 0
3984 3983 3566 0
3616 3933 3670 0
3616 3985 3933 0
3668 3985 3616 0
3503 3806 3932 0
3986 3738 3808 0
3619 3987 3811 0
3619 3988 3987 0
3676 3932 3806 0
3989 3568 3811 0
3746 3937 3741 0
3989 3512 3568 0
3512 3989 3990 0
3512 3990 3677 0
3991 3815 3684 0
3939 3624 3680 0
3992 3940 3814 0
3684 3870 3991 0
3682 3940 3938 0
3873 3750 3875 0
3874 3748 3871 0
3942 3826 3575 0
3942 3993 3994 0
3942 3689 3993 0
3822 3820 3995 0
3753 3943 3996 0
3878 3997 3941 0
3878 3877 3997 0
3826 3942 3998 0
3994 3998 3942 0
3879 3828 3999 0
3944 3946 4000 0
3753 3996 3827 0
3754 3880 4001 0
3754 4001 4002 0
3947 3828 3829 0
3999 3828 3947 0
3754 3694 3880 0
3880 4003 4001 0
4004 4003 3755 0
3755 3831 4004 0
4005 3837 3836 0
3835 3950 4006 0
4007 3952 3837 0
4008 3951 3838 0
3885 4009 3955 0
3889 4008 3838 0
3769 3641 3887 0
4010 4011 3889 0
3889 3891 4010 0
3768 3590 3770 0
4012 3889 4011 0
4013 3955 4009 0
3593 3769 4014 0
4015 3770 3892 0
4010 3891 3890 0
4010 3890 4016 0
3956 3771 3893 0
3771 4017 3893 0
3890 4013 4018 0
3890 3955 4013 0
3774 3773 4019 0
3960 3717 4020 0
4020 3895 3843 0
4021 3902 3898 0
3961 3775 3779 0
3961 3779 4022 0
3897 4023 3778 0
3844 3966 3897 0
3846 3845 4024 0
3962 3963 3847 0
3901 3963 4025 0
3783 3968 4026 0
3726 3783 3967 0
3967 3783 4026 0
3785 3848 3965 0
3790 3653 3969 0
3972 3650 4027 0
3905 3787 3971 0
4028 3848 3655 0
3655 3656 4028 0
4028 4029 3848 0
3851 3850 4030 0
3974 3975 3654 0
3792 4031 3908 0
4032 3857 3660 0
3660 3856 4032 0
4033 3912 3911 0
3796 3978 3911 0
3979 4034 3980 0
3919 3917 3920 0
3561 3921 4035 0
3608 3561 4036 0
3981 3734 3494 0
4037 3803 3560 0
4038 4037 3560 0
3736 3866 3982 0
3667 3617 4039 0
3617 3930 4039 0
3666 3925 4040 0
4041 3927 3666 0
3668 3927 3985 0
3984 3566 3935 0
3740 4042 3810 0
3932 3676 4043 0
3986 3740 3738 0
3936 4043 3676 0
3812 3677 3990 0
3990 4044 3812 0
4045 3813 3869 0
4045 3814 3813 0
3940 3625 3814 0
3939 3812 4044 0
3870 4046 3991 0
4047 3991 4046 0
3817 3815 4047 0
3875 3689 3873 0
3817 4047 4048 0
3872 4049 3876 0
3823 4050 3824 0
3823 4049 4050 0
3876 4049 3823 0
3817 4048 3943 0
4051 3872 3825 0
4052 3995 3820 0
3827 4052 3820 0
4050 4053 3824 0
3825 3754 4002 0
3880 3755 4003 0
4001 4003 4054 0
4054 4002 4001 0
4055 4004 3831 0
3700 4056 3831 0
4057 3882 3881 0
3948 4058 3763 0
3767 3705 3841 0
4059 3841 3705 0
3765 3835 3948 0
3952 4007 3953 0
3713 3712 3950 0
3712 3888 3950 0
4060 4009 3953 0
3884 4059 4061 0
3884 3841 4059 0
3954 3887 3714 0
3768 3770 4062 0
3885 3953 4009 0
4063 4062 3770 0
3773 3593 4014 0
4064 3770 4015 0
4064 4063 3770 0
3958 3892 3842 0
4065 4015 3892 0
3892 3958 4065 0
3774 4066 3894 0
4020 3777 3893 0
4067 3957 3776 0
3843 3960 4020 0
3843 3648 3960 0
4021 3894 4068 0
4021 3898 3894 0
4069 4022 3779 0
3779 3778 4069 0
3961 4022 4070 0
4071 3902 4021 0
3962 3846 4024 0
3897 3966 4023 0
4072 3899 3900 0
3900 3902 4072 0
4073 4024 3845 0
3901 4025 3784 0
4073 3845 3964 0
4074 4026 3968 0
3972 4075 3969 0
4076 3965 3848 0
4077 3906 3905 0
4029 4076 3848 0
3733 3974 3652 0
4078 3907 3906 0
3973 3851 4030 0
3974 3733 4079 0
4028 4080 4029 0
3547 4081 4028 0
4028 3656 3547 0
4080 4028 4081 0
3975 4031 3792 0
4082 3908 4031 0
3910 3854 4083 0
3910 4083 4084 0
4083 3794 3852 0
3794 4083 3854 0
3910 3856 3855 0
3976 4085 3852 0
3976 3909 4086 0
4086 4087 3976 0
3979 3912 4033 0
3980 4034 4088 0
4089 3918 3912 0
3980 4089 3912 0
3918 4089 3920 0
4090 4035 3921 0
3922 3803 4037 0
4091 3923 3922 0
4037 4091 3922 0
4035 4036 3561 0
3560 3608 4038 0
4036 4038 3608 0
3924 3663 3662 0
4092 3924 3662 0
3982 4093 3735 0
3665 3924 4094 0
3926 3667 4039 0
4039 3930 4095 0
3930 3928 4095 0
3930 3929 3928 0
3983 3988 3619 0
3934 3810 4042 0
4096 3740 3986 0
3815 3991 4047 0
3870 3624 4097 0
3624 3939 4097 0
4097 4098 3870 0
3870 4098 4046 0
3875 3822 4099 0
3579 3629 3874 0
3871 3579 3874 0
3997 3877 4100 0
4101 3826 3998 0
3998 4102 4101 0
3995 4099 3822 0
4103 4099 3995 0
3995 4052 4103 0
3999 3947 3945 0
3945 3579 3999 0
3825 4002 4051 0
4000 3756 3944 0
4002 4054 4104 0
4105 4054 4003 0
4003 4106 4105 0
4003 4004 4106 0
3831 4056 4055 0
3700 3832 4056 0
3701 3761 3881 0
3763 4058 3761 0
3761 4058 3881 0
4057 3881 4058 0
4005 3836 3949 0
3951 4107 3705 0
3834 3951 3705 0
3705 4107 4108 0
3835 4006 3948 0
4109 4007 3837 0
4059 3705 4108 0
3889 4012 4008 0
3887 3954 4110 0
3884 4110 3954 0
3768 4062 3888 0
4018 4016 3890 0
4065 4111 4015 0
4018 4112 4016 0
4019 4066 3774 0
4112 4113 4016 0
3771 3957 4017 0
4020 3717 3777 0
3958 3959 4114 0
3959 3961 4114 0
3776 3895 4067 0
3895 4020 4067 0
4023 4070 4022 0
4022 4069 4023 0
4069 3778 4023 0
4115 3902 4071 0
3902 4115 4072 0
4116 3966 3965 0
3966 4116 4023 0
4076 4117 3965 0
3906 4026 4074 0
3905 3971 4077 0
3971 3970 4077 0
4118 3906 4074 0
4119 4118 4074 0
3906 3967 4026 0
3906 4118 4078 0
3849 3973 4120 0
4121 4118 4119 0
4121 4078 4118 0
4122 3850 3907 0
4123 4124 4122 0
3907 4123 4122 0
4125 3974 4079 0
4121 4126 4078 0
4080 4081 4127 0
4081 3547 4127 0
4128 4086 3908 0
3908 4082 4128 0
3908 4086 3909 0
4087 4086 4129 0
3976 4087 4130 0
3858 4131 3859 0
3858 3857 4131 0
4032 4131 3857 0
3911 3978 4033 0
3978 3977 4033 0
4132 3919 3920 0
3919 4133 3921 0
3919 4132 4133 0
4092 3662 3923 0
3923 4091 4092 0
3735 4093 3981 0
4134 3981 4093 0
3665 4094 4135 0
4094 4092 4136 0
4094 3924 4092 0
4137 3865 3665 0
4138 4137 3665 0
4139 3866 4140 0
3866 4139 3982 0
3931 3867 4141 0
4137 4095 3928 0
4040 4041 3666 0
3927 4041 3985 0
3867 4142 4141 0
3867 4143 4142 0
4143 3867 4043 0
4144 3811 3987 0
3867 3868 4043 0
4043 3868 3932 0
4042 3740 4096 0
4145 3986 3808 0
4146 3989 3811 0
3811 4144 4146 0
4145 4096 3986 0
4147 3990 3989 0
4148 4147 3989 0
3989 4146 4148 0
4149 3869 3937 0
4149 4045 3869 0
3990 4147 4044 0
4043 3936 4150 0
3685 4151 3746 0
4152 4151 3685 0
3747 4152 3685 0
4153 4048 4047 0
3747 3941 4152 0
4154 3689 3875 0
4155 4098 4097 0
4097 3939 4155 0
4098 4156 4046 0
3579 3871 3879 0
4048 3996 3943 0
4157 3827 3996 0
4050 4049 4104 0
4053 3877 3824 0
3994 4102 3998 0
4104 4053 4050 0
3877 4053 4158 0
4159 3946 3826 0
4160 3946 4159 0
3826 4101 4159 0
4157 3996 4161 0
4162 4051 4002 0
4002 4104 4162 0
4000 3946 4160 0
4163 3832 3757 0
3757 3756 4163 0
4164 4106 4004 0
4004 4055 4165 0
4004 4165 4164 0
4056 3832 4166 0
3882 4167 3949 0
4057 4167 3882 0
4057 4058 4168 0
4169 4005 3949 0
3837 4005 4109 0
4170 4006 3950 0
3950 3888 4170 0
4171 4061 4059 0
4110 3884 4061 0
4110 4061 4171 0
4062 4172 3888 0
4011 4010 4173 0
4014 3769 4174 0
3769 3887 4174 0
4015 4111 4064 0
3773 4014 4175 0
4176 3773 4175 0
4176 4019 3773 0
4019 4176 4066 0
4067 4017 3957 0
4067 3893 4017 0
4113 4177 4016 0
4068 3894 4066 0
4178 4113 4112 0
4179 4021 4068 0
4071 4021 4179 0
4027 3963 3962 0
4027 4025 3963 0
4180 4024 4073 0
4180 3970 3969 0
3969 4075 4180 0
3784 4027 3650 0
4027 3784 4025 0
4117 4116 3965 0
4117 4076 4181 0
3968 4182 4074 0
4077 3967 3906 0
4120 4183 3849 0
4183 3733 3849 0
4125 3975 3974 0
3907 4078 4123 0
4125 4031 3975 0
4080 4127 4184 0
4184 4127 4185 0
3853 4127 3547 0
4185 4127 3853 0
4085 4083 3852 0
4186 3859 4131 0
4131 3910 4084 0
4131 3856 3910 0
3856 4131 4032 0
3859 4187 3977 0
4188 4187 3859 0
3860 4189 3604 0
4189 4185 3604 0
3860 4190 4189 0
4190 3860 4191 0
4190 4185 4189 0
3860 4192 4191 0
3977 4187 4033 0
4193 3607 3862 0
4193 3860 3607 0
4193 4192 3860 0
4034 3979 4194 0
3979 4033 4194 0
4033 4187 4195 0
4194 4033 4196 0
4197 4193 3862 0
3734 4197 3862 0
4198 4089 3980 0
4088 4198 3980 0
4089 4132 3920 0
4090 3921 4133 0
4136 4092 4091 0
4199 4093 3982 0
4038 4036 4200 0
4093 4199 4134 0
4139 4140 4201 0
4095 4137 4138 0
4137 3928 3865 0
3925 4202 4040 0
4203 3985 4041 0
4041 4040 4203 0
3933 3985 4204 0
3988 3983 4205 0
3984 4205 3983 0
3934 3984 3935 0
3987 3988 4205 0
4206 4207 3934 0
4143 4150 4208 0
4143 4043 4150 0
4209 4149 3937 0
4210 4148 4146 0
4144 4210 4146 0
4148 4210 4211 0
4151 3937 3746 0
4210 4144 4212 0
4045 4213 3814 0
3992 4213 4214 0
4047 4046 4153 0
3992 3814 4213 0
4154 3993 3689 0
4215 4155 3939 0
4216 4098 4155 0
4155 4215 4216 0
4156 4153 4046 0
3997 4217 3941 0
4049 3872 4051 0
3999 3579 3879 0
3996 4218 4161 0
3996 4048 4218 0
4048 4219 4218 0
4162 4104 4049 0
4220 3827 4157 0
4157 4161 4220 0
4164 4105 4106 0
4057 4168 4221 0
3949 4167 4222 0
3949 4222 4169 0
4109 4005 4169 0
3948 4223 4224 0
4007 4060 3953 0
4012 4225 4008 0
4225 3951 4008 0
4009 4060 4226 0
4173 4012 4011 0
4227 4014 4174 0
4018 4013 4228 0
4177 4010 4016 0
4066 4229 4179 0
4176 4229 4066 0
4067 4020 3893 0
4065 3958 4230 0
4179 4068 4066 0
4178 4231 4113 0
3961 4232 4114 0
4114 4232 3958 0
4233 4234 4071 0
4179 4233 4071 0
4235 4115 4071 0
4027 3962 4236 0
4237 3899 4072 0
4237 3968 3899 0
4238 4073 3964 0
3972 4027 4075 0
4182 4119 4074 0
4077 3970 4238 0
3850 3973 4030 0
3973 4239 4120 0
4183 4120 4240 0
4029 4241 4076 0
4080 4241 4029 0
4079 4242 4125 0
4184 4241 4080 0
4125 4082 4031 0
4078 4126 4123 0
4243 4244 4085 0
4085 3976 4243 0
4083 4085 4244 0
3853 3604 4185 0
4245 4246 4244 0
4244 4243 4245 0
4190 4184 4185 0
4130 4243 3976 0
4129 4130 4087 0
4247 4248 4192 0
4248 4191 4192 0
4192 4193 4247 0
4193 4197 4247 0
4249 4195 4187 0
4187 4188 4249 0
4194 4250 4034 0
4197 3734 4251 0
4252 4088 4253 0
4254 4090 4133 0
4133 4255 4254 0
4089 4198 4256 0
4251 3981 4134 0
4257 4035 4090 0
3734 3981 4251 0
4257 4036 4035 0
4257 4200 4036 0
4037 4258 4091 0
4200 4259 4038 0
3982 4139 4199 0
4201 4199 4139 0
4199 4201 4260 0
4135 4138 3665 0
4140 3866 4261 0
3866 3931 4261 0
4262 3925 3926 0
4039 4095 4263 0
3931 4141 4261 0
4203 4204 3985 0
4204 3808 3933 0
4206 4042 4096 0
4264 4206 4096 0
4096 4145 4264 0
4265 4045 4149 0
3937 4151 4209 0
4045 4265 4213 0
4044 4147 4215 0
4266 4208 4150 0
4150 3936 4266 0
4148 4211 4215 0
4215 4147 4148 0
4144 4267 4212 0
4210 4212 4211 0
4216 4215 4211 0
3938 3940 4268 0
4268 3936 3938 0
3875 4269 4154 0
3939 4044 4215 0
3941 4217 4152 0
4048 4153 4219 0
4268 3940 4270 0
3992 4271 3940 0
3997 4272 4217 0
4273 3997 4100 0
4158 4100 3877 0
4274 4099 4103 0
4162 4049 4051 0
4102 3994 4275 0
4052 3827 4220 0
4053 4104 4276 0
3756 4000 4163 0
4167 4057 4221 0
4168 4058 4224 0
3948 4224 4058 0
4221 4168 4224 0
4223 3948 4006 0
4109 4277 4007 0
4107 3951 4225 0
4278 4171 4059 0
4059 4279 4278 0
3888 4172 4170 0
4172 4280 4281 0
4281 4170 4172 0
4171 3887 4110 0
4174 4171 4282 0
4171 4174 3887 0
4280 4172 4062 0
4062 4063 4280 0
4226 4013 4009 0
4063 4064 4280 0
4018 4283 4112 0
4175 4014 4227 0
4175 4284 4176 0
4285 4064 4111 0
4283 4228 4286 0
4018 4228 4283 0
4287 4111 4065 0
4230 4287 4065 0
4177 4113 4288 0
4232 4230 3958 0
4233 4179 4289 0
4234 4235 4071 0
4070 4232 3961 0
4232 4070 4290 0
4291 4237 4072 0
4073 4238 4180 0
4023 4292 4070 0
3964 3967 4077 0
4070 4292 4293 0
4292 4294 4293 0
4292 4023 4294 0
4238 3964 4077 0
4183 4240 3733 0
4182 3968 4295 0
3973 4296 4297 0
3973 3850 4296 0
3850 4122 4296 0
4119 4126 4121 0
4082 4125 4298 0
4128 4082 4299 0
4086 4128 4300 0
4243 4301 4245 0
4243 4130 4301 0
4129 4302 4130 0
4303 4130 4302 0
4249 4188 4304 0
4305 4304 4188 0
4304 4306 4249 0
4307 4308 4249 0
4308 4195 4249 0
4034 4250 4253 0
4034 4253 4088 0
4132 4309 4133 0
4132 4089 4310 0
4090 4254 4257 0
4311 4258 4259 0
4259 4257 4311 0
4038 4259 4258 0
4259 4200 4257 0
4258 4037 4038 0
4312 4135 4094 0
4313 4202 3925 0
4261 4314 4140 0
4313 3925 4262 0
4262 3926 4315 0
4039 4315 3926 0
4039 4263 4315 0
4316 4263 4095 0
3808 4204 4317 0
4318 3987 3984 0
3984 4207 4318 0
3984 3934 4207 0
3934 4042 4206 0
4317 4145 3808 0
4205 3984 3987 0
4267 4144 3987 0
4143 4208 4142 0
4319 4212 4267 0
3936 4320 4266 0
4320 3936 4268 0
4321 4322 4269 0
4323 4211 4212 0
4154 4269 4324 0
4325 4269 3875 0
4274 4325 3875 0
3940 4271 4270 0
4153 4156 4326 0
4156 4098 4327 0
3994 3993 4328 0
4100 4158 4273 0
4329 4160 4159 0
4102 4159 4101 0
4053 4276 4330 0
4160 4331 4332 0
4333 4331 4160 0
4332 4000 4160 0
4334 4163 4000 0
4000 4332 4334 0
4335 4332 4331 0
4332 4335 4334 0
4336 4054 4105 0
4164 4165 4335 0
4165 4334 4335 0
4166 3832 4163 0
4055 4166 4165 0
4056 4166 4055 0
4334 4165 4166 0
4221 4222 4167 0
4108 4107 4225 0
4006 4170 4337 0
4225 4012 4279 0
4226 4060 4007 0
4013 4226 4338 0
4010 4177 4173 0
4176 4284 4339 0
4287 4285 4111 0
4230 4340 4287 0
4113 4231 4341 0
4179 4229 4289 0
4283 4178 4112 0
4340 4230 4232 0
4283 4342 4178 0
4289 4234 4233 0
4234 4289 4343 0
4236 3962 4024 0
4344 4290 4070 0
4115 4291 4072 0
4291 4345 4346 0
4291 4115 4345 0
4180 4236 4024 0
4237 4291 4346 0
4023 4116 4294 0
3968 4237 4295 0
4182 4295 4346 0
4079 3733 4240 0
4240 4242 4079 0
4119 4182 4347 0
4348 4181 4076 0
4241 4348 4076 0
4181 4348 4349 0
4347 4126 4119 0
4122 4124 4296 0
4126 4347 4350 0
4125 4242 4298 0
4351 4124 4123 0
4352 4124 4351 0
4296 4124 4353 0
4241 4184 4354 0
4354 4355 4241 0
4131 4084 4356 0
4184 4190 4354 0
4357 4354 4190 0
4356 4083 4244 0
4244 4246 4356 0
4246 4245 4358 0
4305 4188 3859 0
4191 4357 4190 0
4359 4357 4191 0
4191 4248 4359 0
4305 3859 4186 0
4248 4360 4359 0
4305 4361 4304 0
4362 4303 4302 0
4304 4361 4306 0
4360 4248 4247 0
4247 4363 4360 0
4363 4197 4364 0
4363 4247 4197 0
4132 4310 4309 0
4088 4252 4198 0
4364 4197 4251 0
4365 4252 4253 0
4366 4365 4253 0
4134 4364 4251 0
4257 4367 4311 0
4199 4260 4134 0
4140 4368 4201 0
4094 4136 4312 0
4140 4314 4368 0
4095 4138 4135 0
4314 4369 4368 0
4261 4369 4314 0
4040 4202 4370 0
4371 4372 4373 0
4373 4372 4374 0
4372 4375 4376 0
4376 4374 4372 0
4207 4206 4318 0
3987 4318 4267 0
4377 4318 4206 0
4206 4264 4378 0
4206 4378 4377 0
4209 4265 4149 0
4214 4213 4265 0
4379 4214 4265 0
4265 4209 4379 0
4380 4266 4320 0
4152 4381 4151 0
4323 4382 4211 0
4382 4323 4383 0
4154 4324 3993 0
4152 4384 4381 0
4384 4152 4217 0
3875 4099 4274 0
3992 4385 4271 0
4386 4270 4271 0
4217 4387 4384 0
4219 4153 4388 0
4153 4326 4388 0
4098 4216 4327 0
4387 4217 4389 0
3997 4273 4272 0
4390 4384 4387 0
4391 4390 4387 0
4326 4219 4388 0
4387 4389 4391 0
4158 4053 4330 0
4275 3994 4328 0
4160 4329 4333 0
4102 4329 4159 0
4102 4275 4392 0
4393 4103 4052 0
4052 4220 4393 0
4104 4054 4336 0
4104 4336 4394 0
4104 4330 4276 0
4395 4164 4335 0
4164 4395 4105 0
4221 4224 4396 0
4397 4109 4169 0
4397 4169 4222 0
4398 4397 4222 0
4277 4109 4397 0
4279 4059 4108 0
4225 4279 4108 0
4226 4007 4277 0
4012 4399 4279 0
4173 4400 4012 0
4338 4228 4013 0
4401 4227 4174 0
4174 4282 4401 0
4285 4402 4064 0
4284 4175 4227 0
4284 4227 4403 0
4403 4339 4284 0
4176 4339 4229 0
4289 4229 4339 0
4288 4113 4341 0
4290 4340 4232 0
4404 4287 4340 0
4234 4343 4405 0
4178 4406 4407 0
4178 4407 4231 0
4234 4405 4408 0
4235 4345 4115 0
4409 4345 4235 0
4027 4236 4075 0
4236 4180 4075 0
4116 4410 4294 0
3970 4180 4238 0
4410 4116 4117 0
4237 4346 4295 0
4411 4410 4117 0
4412 4120 4239 0
4347 4182 4413 0
4117 4349 4414 0
4117 4181 4349 0
4297 4239 3973 0
4239 4297 4412 0
4351 4123 4126 0
4356 4084 4083 0
4415 4129 4086 0
4086 4416 4415 0
4356 4186 4131 0
4305 4186 4361 0
4130 4303 4301 0
4186 4356 4361 0
4417 4362 4302 0
4302 4129 4417 0
4303 4418 4301 0
4419 4359 4360 0
4033 4195 4196 0
4308 4196 4195 0
4420 4250 4194 0
4194 4196 4420 0
4309 4255 4133 0
4255 4309 4421 0
4363 4364 4422 0
4256 4310 4089 0
4365 4198 4252 0
4423 4198 4365 0
4365 4366 4424 0
4367 4257 4254 0
4364 4134 4260 0
4364 4260 4425 0
4260 4201 4425 0
4426 4425 4201 0
4425 4426 4427 0
4312 4136 4091 0
4091 4428 4312 0
4135 4429 4430 0
4431 4095 4135 0
4135 4430 4431 0
4432 4371 4373 0
4433 4315 4263 0
4434 4261 4371 0
4432 4434 4371 0
4370 4203 4040 0
4371 4261 4372 0
4372 4261 4141 0
4372 4141 4375 0
4204 4203 4435 0
4145 4317 4436 0
4267 4318 4319 0
4437 4319 4318 0
4318 4438 4437 0
4209 4151 4381 0
4322 4324 4269 0
4439 4380 4320 0
4439 4320 4268 0
4268 4440 4439 0
4211 4382 4216 0
3992 4214 4385 0
4272 4273 4441 0
4442 4328 3993 0
4440 4268 4270 0
4270 4443 4440 0
4386 4443 4270 0
4443 4444 4440 0
4445 4444 4443 0
4443 4386 4445 0
4441 4217 4272 0
4156 4327 4326 0
4391 4446 4390 0
4274 4103 4393 0
4326 4218 4219 0
4218 4326 4161 0
4161 4326 4447 0
4448 4447 4326 0
4158 4330 4273 0
4161 4447 4220 0
4449 4273 4330 0
4394 4449 4330 0
4450 4451 4102 0
4102 4392 4450 0
4331 4395 4335 0
4336 4105 4395 0
4224 4223 4396 0
4222 4221 4452 0
4223 4006 4337 0
4453 4277 4397 0
4281 4337 4170 0
4454 4455 4456 0
4282 4171 4401 0
4457 4338 4226 0
4226 4454 4457 0
4400 4399 4012 0
4064 4402 4280 0
4458 4402 4285 0
4459 4458 4285 0
4285 4287 4459 0
4177 4460 4173 0
4283 4461 4342 0
4340 4462 4404 0
4178 4342 4406 0
4290 4462 4340 0
4463 4231 4407 0
4408 4235 4234 0
4464 4290 4344 0
4465 4344 4070 0
4070 4293 4465 0
4466 4240 4120 0
4120 4412 4466 0
4467 4413 4182 0
4346 4467 4182 0
4117 4414 4411 0
4413 4467 4468 0
4469 4413 4468 0
4353 4297 4296 0
4347 4413 4350 0
4470 4126 4350 0
4082 4298 4299 0
4348 4355 4471 0
4348 4241 4355 0
4472 4128 4299 0
4470 4351 4126 0
4128 4473 4300 0
4472 4473 4128 0
4355 4354 4474 0
4475 4416 4300 0
4473 4475 4300 0
4086 4300 4416 0
4476 4361 4356 0
4417 4129 4415 0
4357 4359 4477 0
4358 4245 4301 0
4478 4303 4362 0
4479 4418 4303 0
4303 4478 4479 0
4249 4306 4307 0
4480 4307 4306 0
4360 4363 4481 0
4366 4253 4250 0
4250 4420 4366 0
4310 4256 4482 0
4254 4255 4367 0
4311 4483 4258 0
4484 4365 4424 0
4484 4424 4485 0
4483 4091 4258 0
4364 4425 4427 0
4486 4429 4487 0
4135 4312 4429 0
4312 4487 4429 0
4488 4368 4369 0
4489 4262 4315 0
4490 4489 4315 0
4434 4369 4261 0
4370 4491 4203 0
4492 4263 4316 0
4316 4095 4492 0
4492 4433 4263 0
4203 4491 4435 0
4142 4375 4141 0
4375 4208 4376 0
4142 4208 4375 0
4493 4208 4380 0
4376 4208 4493 0
4436 4264 4145 0
4318 4377 4494 0
4378 4264 4495 0
4494 4438 4318 0
4269 4325 4321 0
4324 4322 4496 0
4497 4323 4212 0
4212 4319 4497 0
4498 4209 4381 0
4499 4385 4214 0
4498 4381 4384 0
4500 4498 4384 0
4390 4500 4384 0
4501 4386 4271 0
4271 4385 4501 0
4502 4326 4327 0
4503 4502 4327 0
4275 4328 4504 0
4326 4502 4448 0
4504 4392 4275 0
4504 4505 4392 0
4329 4102 4506 0
4507 4331 4333 0
4394 4330 4104 0
4508 4506 4102 0
4102 4451 4508 0
4451 4450 4508 0
4334 4166 4163 0
4277 4453 4455 0
4454 4226 4277 0
4455 4454 4277 0
4399 4278 4279 0
4401 4171 4278 0
4278 4399 4401 0
4280 4509 4281 0
4280 4510 4509 0
4402 4510 4280 0
4511 4228 4338 0
4286 4228 4512 0
4513 4403 4227 0
4511 4512 4228 0
4403 4514 4339 0
4459 4515 4458 0
4459 4287 4515 0
4177 4288 4460 0
4516 4343 4289 0
4289 4514 4516 0
4289 4339 4514 0
4341 4231 4517 0
4518 4408 4405 0
4517 4519 4341 0
4517 4231 4519 0
4231 4520 4519 0
4231 4463 4520 0
4518 4521 4408 0
4522 4521 4518 0
4521 4409 4408 0
4522 4523 4521 0
4524 4462 4290 0
4408 4409 4235 0
4290 4464 4524 0
4346 4345 4525 0
4465 4464 4344 0
4526 4294 4410 0
4527 4467 4346 0
4467 4527 4528 0
4526 4293 4294 0
4528 4527 4525 0
4466 4529 4240 0
4528 4530 4467 0
4467 4530 4468 0
4529 4242 4240 0
4531 4411 4414 0
4532 4414 4349 0
4348 4532 4349 0
4413 4469 4350 0
4353 4533 4297 0
4529 4298 4242 0
4352 4353 4124 0
4472 4299 4298 0
4534 4472 4298 0
4358 4476 4246 0
4475 4415 4416 0
4357 4477 4535 0
4535 4354 4357 0
4536 4306 4361 0
4417 4537 4362 0
4481 4419 4360 0
4306 4536 4480 0
4363 4538 4481 0
4196 4539 4420 0
4363 4422 4538 0
4540 4538 4422 0
4541 4366 4420 0
4309 4310 4421 0
4255 4421 4367 0
4422 4364 4540 0
4484 4423 4365 0
4423 4484 4542 0
4483 4428 4091 0
4428 4487 4312 0
4428 4483 4487 0
4483 4486 4487 0
4543 4426 4201 0
4201 4368 4543 0
4313 4262 4489 0
4370 4202 4313 0
4432 4488 4434 0
4095 4431 4492 0
4544 4432 4373 0
4544 4373 4374 0
4435 4317 4204 0
4266 4380 4208 0
4494 4377 4545 0
4493 4380 4546 0
4495 4545 4377 0
4377 4378 4495 0
4322 4321 4547 0
4319 4437 4548 0
4438 4494 4549 0
4440 4550 4439 0
4382 4503 4216 0
4382 4383 4503 0
4385 4499 4501 0
4496 3993 4324 0
4325 4274 4551 0
4496 4442 3993 0
4327 4216 4503 0
4441 4389 4217 0
4552 4500 4390 0
4553 4441 4273 0
4553 4273 4449 0
4389 4441 4554 0
4554 4391 4389 0
4448 4555 4447 0
4393 4220 4555 0
4555 4220 4447 0
4555 4448 4556 0
4557 4333 4329 0
4329 4506 4557 0
4508 4557 4506 0
4558 4336 4395 0
4559 4396 4560 0
4560 4337 4561 0
4560 4223 4337 0
4396 4223 4560 0
4222 4452 4398 0
4453 4397 4398 0
4452 4221 4396 0
4398 4452 4562 0
4337 4281 4561 0
4509 4561 4281 0
4563 4399 4400 0
4283 4286 4512 0
4563 4400 4173 0
4403 4564 4565 0
4403 4513 4564 0
4287 4404 4515 0
4566 4565 4567 0
4568 4565 4566 0
4343 4516 4569 0
4342 4461 4406 0
4566 4567 4570 0
4569 4405 4343 0
4462 4571 4404 0
4407 4406 4463 0
4572 4462 4524 0
4464 4572 4524 0
4463 4573 4574 0
4575 4345 4409 0
4410 4411 4526 0
4526 4411 4576 0
4577 4530 4528 0
4293 4526 4465 0
4412 4297 4533 0
4578 4414 4532 0
4532 4579 4578 0
4532 4348 4579 0
4579 4348 4580 0
4348 4471 4580 0
4581 4352 4351 0
4476 4356 4246 0
4354 4535 4474 0
4361 4476 4536 0
4358 4301 4582 0
4477 4419 4535 0
4417 4415 4583 0
4415 4475 4583 0
4584 4582 4301 0
4477 4359 4419 0
4307 4480 4308 0
4585 4421 4310 0
4310 4482 4585 0
4538 4586 4587 0
4540 4586 4538 0
4538 4587 4481 0
4366 4541 4588 0
4366 4588 4424 0
4589 4540 4590 0
4589 4586 4540 0
4364 4590 4540 0
4590 4364 4427 0
4542 4591 4423 0
4311 4486 4483 0
4486 4311 4592 0
4593 4429 4486 0
4593 4486 4594 0
4488 4369 4434 0
4595 4489 4490 0
4433 4595 4490 0
4490 4315 4433 0
4596 4431 4430 0
4432 4544 4597 0
4491 4370 4598 0
4599 4544 4374 0
4317 4435 4600 0
4545 4601 4494 0
4602 4494 4601 0
4493 4599 4374 0
4374 4376 4493 0
4495 4264 4436 0
4603 4495 4436 0
4436 4600 4603 0
4436 4317 4600 0
4322 4604 4605 0
4439 4546 4380 0
4548 4497 4319 0
4494 4606 4549 0
4607 4549 4606 0
4608 4438 4549 0
4214 4379 4609 0
4497 4383 4323 0
4610 4498 4500 0
4500 4552 4610 0
4547 4321 4325 0
4611 4547 4325 0
4551 4611 4325 0
4391 4612 4446 0
4391 4554 4612 0
4442 4505 4504 0
4504 4328 4442 0
4505 4450 4392 0
4556 4393 4555 0
4613 4507 4333 0
4333 4557 4613 0
4558 4394 4336 0
4558 4395 4331 0
4396 4614 4452 0
4455 4453 4456 0
4457 4511 4338 0
4615 4509 4510 0
4401 4513 4227 0
4510 4402 4616 0
4513 4401 4617 0
4458 4616 4402 0
4563 4173 4460 0
4512 4461 4283 0
4460 4288 4618 0
4571 4515 4404 0
4619 4620 4618 0
4619 4567 4620 0
4566 4570 4516 0
4406 4461 4621 0
4516 4570 4569 0
4573 4463 4406 0
4522 4518 4405 0
4519 4520 4622 0
4623 4622 4520 0
4520 4463 4623 0
4624 4623 4463 0
4624 4463 4574 0
4577 4528 4625 0
4528 4626 4625 0
4627 4464 4465 0
4411 4531 4576 0
4298 4628 4534 0
4298 4529 4628 0
4578 4531 4414 0
4350 4581 4470 0
4350 4469 4581 0
4353 4352 4629 0
4351 4470 4581 0
4630 4580 4471 0
4355 4630 4471 0
4631 4629 4352 0
4632 4473 4472 0
4580 4630 4633 0
4634 4475 4473 0
4635 4417 4583 0
4583 4636 4635 0
4637 4480 4536 0
4536 4476 4637 0
4537 4417 4638 0
4301 4418 4584 0
4478 4362 4537 0
4418 4479 4639 0
4640 4479 4478 0
4641 4367 4421 0
4482 4256 4642 0
4642 4256 4198 0
4643 4642 4198 0
4198 4423 4643 0
4644 4485 4424 0
4424 4645 4644 0
4424 4646 4645 0
4591 4643 4423 0
4424 4647 4646 0
4646 4648 4645 0
4368 4488 4543 0
4649 4488 4432 0
4596 4430 4429 0
4429 4593 4596 0
4595 4650 4489 0
4651 4650 4595 0
4492 4595 4433 0
4431 4652 4492 0
4544 4653 4597 0
4544 4654 4653 0
4655 4653 4654 0
4544 4599 4654 0
4656 4657 4658 0
4659 4660 4657 0
4661 4657 4660 0
4660 4662 4661 0
4660 4659 4662 0
4663 4662 4659 0
4664 4659 4657 0
4659 4665 4666 0
4659 4667 4665 0
4668 4667 4659 0
4602 4665 4667 0
4667 4669 4602 0
4664 4670 4659 0
4659 4670 4668 0
4671 4666 4665 0
4668 4669 4667 0
4603 4545 4495 0
4550 4546 4439 0
4498 4379 4209 0
4547 4604 4322 0
4609 4379 4498 0
4605 4672 4322 0
4437 4438 4608 0
4437 4608 4548 0
4672 4496 4322 0
4673 4496 4672 0
4214 4609 4499 0
4496 4674 4442 0
4551 4556 4675 0
4611 4551 4675 0
4274 4393 4556 0
4551 4274 4556 0
4386 4501 4676 0
4553 4554 4441 0
4677 4552 4390 0
4390 4446 4677 0
4449 4678 4553 0
4554 4553 4678 0
4679 4554 4678 0
4680 4449 4394 0
4394 4558 4680 0
4507 4681 4331 0
4557 4508 4682 0
4683 4508 4450 0
4558 4331 4681 0
4614 4396 4559 0
4452 4614 4562 0
4560 4684 4559 0
4560 4561 4684 0
4685 4457 4454 0
4456 4685 4454 0
4686 4561 4509 0
4615 4686 4509 0
4399 4563 4687 0
4616 4458 4688 0
4618 4620 4460 0
4514 4565 4568 0
4568 4516 4514 0
4688 4515 4571 0
4458 4515 4688 0
4461 4512 4689 0
4288 4690 4618 0
4341 4690 4288 0
4691 4618 4690 0
4516 4568 4566 0
4619 4618 4691 0
4345 4575 4692 0
4345 4692 4525 0
4572 4464 4627 0
4525 4527 4346 0
4693 4466 4412 0
4526 4576 4465 0
4533 4693 4412 0
4628 4529 4693 0
4472 4534 4628 0
4694 4579 4580 0
4632 4472 4695 0
4355 4474 4630 0
4474 4633 4630 0
4580 4633 4694 0
4694 4633 4696 0
4475 4634 4697 0
4475 4697 4583 0
4582 4476 4358 0
4698 4537 4638 0
4699 4698 4638 0
4638 4417 4700 0
4417 4635 4700 0
4701 4419 4481 0
4481 4587 4701 0
4702 4584 4418 0
4703 4702 4418 0
4418 4639 4703 0
4478 4537 4704 0
4705 4308 4480 0
4706 4705 4480 0
4478 4704 4640 0
4196 4308 4539 0
4707 4541 4420 0
4420 4539 4707 0
4592 4311 4367 0
4641 4592 4367 0
4708 4590 4427 0
4648 4646 4647 0
4709 4645 4648 0
4709 4710 4645 0
4484 4485 4542 0
4486 4592 4711 0
4645 4710 4644 0
4708 4427 4426 0
4712 4708 4426 0
4713 4710 4709 0
4709 4714 4713 0
4488 4649 4715 0
4652 4651 4595 0
4716 4313 4489 0
4595 4492 4652 0
4716 4370 4313 0
4370 4716 4598 0
4658 4657 4661 0
4654 4717 4655 0
4654 4718 4717 0
4654 4599 4718 0
4719 4718 4720 0
4599 4720 4718 0
4718 4719 4717 0
4720 4599 4493 0
4494 4602 4669 0
4546 4719 4720 0
4720 4493 4546 0
4721 4719 4546 0
4722 4669 4723 0
4669 4722 4494 0
4669 4668 4723 0
4721 4546 4550 0
4547 4724 4604 0
4725 4548 4608 0
4726 4383 4497 0
4548 4726 4497 0
4727 4503 4383 0
4501 4499 4609 0
4728 4501 4609 0
4442 4674 4729 0
4502 4503 4727 0
4386 4676 4445 0
4677 4446 4730 0
4731 4610 4552 0
4677 4731 4552 0
4732 4612 4554 0
4554 4679 4732 0
4612 4733 4446 0
4448 4502 4556 0
4733 4730 4446 0
4450 4505 4683 0
4557 4734 4613 0
4557 4682 4734 0
4508 4683 4682 0
4456 4453 4398 0
4735 4398 4562 0
4736 4737 4735 0
4738 4736 4735 0
4735 4737 4398 0
4686 4684 4561 0
4617 4401 4399 0
4510 4616 4615 0
4617 4564 4513 0
4565 4514 4403 0
4687 4563 4460 0
4616 4688 4739 0
4620 4567 4565 0
4620 4565 4740 0
4689 4621 4461 0
4741 4567 4619 0
4742 4743 4570 0
4570 4567 4742 0
4522 4405 4569 0
4691 4519 4622 0
4622 4744 4691 0
4621 4745 4573 0
4573 4406 4621 0
4622 4623 4624 0
4521 4575 4409 0
4575 4521 4523 0
4575 4523 4746 0
4747 4624 4574 0
4574 4748 4747 0
4574 4749 4748 0
4749 4574 4750 0
4530 4577 4751 0
4577 4625 4751 0
4465 4576 4752 0
4529 4466 4693 0
4531 4578 4576 0
4753 4576 4578 0
4353 4754 4533 0
4353 4629 4754 0
4629 4755 4754 0
4581 4631 4352 0
4632 4634 4473 0
4756 4757 4634 0
4634 4632 4756 0
4757 4697 4634 0
4636 4583 4697 0
4697 4757 4636 0
4476 4582 4637 0
4474 4535 4758 0
4701 4759 4419 0
4759 4535 4419 0
4636 4700 4635 0
4584 4702 4582 0
4639 4760 4703 0
4761 4701 4587 0
4639 4479 4760 0
4707 4308 4705 0
4762 4707 4705 0
4705 4763 4762 0
4308 4707 4539 0
4764 4640 4704 0
4765 4588 4541 0
4707 4765 4541 0
4588 4647 4424 0
4592 4641 4711 0
4766 4485 4644 0
4644 4767 4766 0
4591 4768 4769 0
4542 4768 4591 0
4543 4712 4426 0
4488 4770 4543 0
4770 4488 4715 0
4771 4716 4489 0
4652 4431 4596 0
4772 4773 4774 0
4774 4775 4776 0
4774 4776 4772 0
4777 4776 4775 0
4777 4661 4776 0
4653 4655 4778 0
4662 4776 4661 0
4779 4435 4491 0
4491 4598 4779 0
4435 4779 4600 0
4780 4600 4779 0
4781 4655 4717 0
4781 4717 4719 0
4602 4601 4782 0
4603 4601 4545 0
4722 4606 4494 0
4719 4783 4784 0
4719 4721 4783 0
4606 4722 4785 0
4604 4724 4605 0
4498 4786 4609 0
4787 4550 4440 0
4440 4444 4787 0
4547 4611 4788 0
4789 4728 4609 0
4790 4788 4611 0
4501 4728 4791 0
4792 4787 4444 0
4444 4445 4792 0
4609 4786 4789 0
4789 4786 4793 0
4676 4501 4791 0
4556 4502 4675 0
4675 4502 4794 0
4502 4727 4794 0
4676 4795 4445 0
4680 4678 4449 0
4683 4730 4682 0
4734 4682 4730 0
4730 4733 4734 0
4683 4505 4796 0
4507 4613 4681 0
4681 4613 4679 0
4679 4680 4558 0
4456 4398 4737 0
4738 4562 4797 0
4738 4735 4562 0
4797 4798 4738 0
4797 4684 4798 0
4799 4456 4737 0
4800 4511 4457 0
4564 4801 4740 0
4802 4741 4619 0
4567 4741 4742 0
4741 4803 4742 0
4804 4803 4741 0
4341 4519 4690 0
4805 4570 4743 0
4805 4743 4742 0
4805 4569 4570 0
4523 4569 4805 0
4523 4522 4569 0
4462 4806 4571 0
4519 4691 4690 0
4806 4807 4571 0
4573 4745 4808 0
4572 4806 4462 0
4809 4574 4573 0
4808 4809 4573 0
4626 4525 4692 0
4528 4525 4626 0
4468 4530 4469 0
4751 4469 4530 0
4465 4752 4810 0
4811 4533 4754 0
4811 4693 4533 0
4581 4469 4631 0
4469 4812 4631 0
4578 4694 4813 0
4578 4579 4694 0
4814 4754 4755 0
4631 4755 4629 0
4755 4631 4815 0
4694 4696 4816 0
4632 4695 4756 0
4535 4759 4758 0
4637 4582 4817 0
4706 4480 4637 0
4817 4706 4637 0
4698 4704 4537 0
4638 4700 4699 0
4818 4700 4636 0
4698 4819 4704 0
4705 4706 4763 0
4764 4479 4640 0
4479 4764 4820 0
4760 4479 4820 0
4821 4822 4823 0
4824 4825 4821 0
4421 4585 4641 0
4826 4824 4821 0
4827 4826 4821 0
4482 4828 4585 0
4482 4642 4828 0
4826 4829 4824 0
4826 4830 4829 0
4486 4711 4594 0
4644 4710 4767 0
4768 4542 4485 0
4831 4768 4485 0
4832 4833 4834 0
4594 4833 4832 0
4651 4594 4832 0
4835 4708 4712 0
4834 4836 4832 0
4650 4832 4836 0
4650 4651 4832 0
4837 4766 4767 0
4713 4767 4710 0
4594 4596 4593 0
4594 4651 4596 0
4838 4489 4650 0
4839 4774 4773 0
4773 4772 4840 0
4649 4597 4715 0
4649 4432 4597 0
4774 4839 4775 0
4771 4489 4841 0
4597 4653 4715 0
4781 4778 4655 0
4778 4715 4653 0
4658 4661 4842 0
4843 4662 4663 0
4663 4666 4843 0
4663 4659 4666 0
4844 4671 4665 0
4665 4602 4844 0
4602 4782 4844 0
4664 4657 4656 0
4845 4664 4656 0
4846 4844 4782 0
4782 4601 4846 0
4847 4603 4600 0
4848 4668 4670 0
4849 4723 4668 0
4606 4785 4607 0
4783 4721 4550 0
4672 4605 4850 0
4607 4608 4549 0
4608 4607 4785 0
4498 4610 4786 0
4674 4496 4673 0
4791 4728 4789 0
4851 4794 4727 0
4731 4677 4852 0
4676 4791 4795 0
4853 4505 4442 0
4442 4729 4853 0
4680 4679 4678 0
4558 4681 4679 0
4614 4559 4562 0
4854 4562 4559 0
4684 4854 4559 0
4799 4685 4456 0
4799 4737 4855 0
4457 4685 4800 0
4399 4687 4617 0
4856 4512 4800 0
4800 4512 4511 0
4740 4565 4564 0
4687 4460 4620 0
4801 4687 4620 0
4512 4857 4689 0
4688 4571 4858 0
4741 4802 4804 0
4802 4619 4691 0
4571 4807 4859 0
4860 4744 4622 0
4692 4575 4861 0
4806 4572 4862 0
4809 4750 4574 0
4750 4809 4863 0
4750 4864 4749 0
4865 4469 4751 0
4469 4866 4867 0
4867 4812 4469 0
4753 4578 4868 0
4869 4631 4812 0
4814 4755 4870 0
4578 4813 4868 0
4628 4814 4472 0
4472 4814 4870 0
4871 4868 4813 0
4813 4694 4871 0
4755 4815 4870 0
4695 4472 4870 0
4696 4633 4474 0
4872 4696 4474 0
4873 4636 4757 0
4757 4756 4873 0
4822 4821 4825 0
4759 4822 4874 0
4822 4875 4874 0
4763 4706 4817 0
4822 4825 4875 0
4876 4823 4822 0
4822 4759 4876 0
4702 4877 4582 0
4587 4586 4761 0
4878 4761 4586 0
4826 4827 4830 0
4879 4585 4828 0
4880 4881 4647 0
4647 4588 4880 0
4882 4642 4643 0
4588 4883 4880 0
4884 4709 4648 0
4591 4882 4643 0
4835 4590 4708 0
4885 4830 4886 0
4830 4885 4829 0
4709 4884 4887 0
4831 4485 4766 0
4766 4837 4831 0
4888 4885 4886 0
4768 4831 4769 0
4889 4650 4834 0
4650 4836 4834 0
4890 4885 4888 0
4651 4652 4596 0
4835 4712 4543 0
4891 4767 4713 0
4892 4891 4713 0
4770 4715 4543 0
4893 4840 4772 0
4894 4893 4895 0
4843 4894 4895 0
4598 4716 4896 0
4896 4716 4771 0
4771 4841 4896 0
4842 4661 4777 0
4777 4897 4842 0
4777 4775 4897 0
4779 4598 4780 0
4600 4780 4847 0
4664 4898 4670 0
4719 4784 4899 0
4900 4781 4719 0
4719 4901 4900 0
4899 4902 4901 0
4902 4899 4903 0
4848 4849 4668 0
4722 4904 4905 0
4722 4723 4904 0
4605 4724 4906 0
4550 4787 4783 0
4725 4726 4548 0
4788 4724 4547 0
4907 4724 4788 0
4907 4906 4724 0
4850 4908 4672 0
4787 4792 4909 0
4672 4908 4673 0
4786 4610 4910 0
4911 4727 4383 0
4383 4726 4911 0
4729 4674 4673 0
4912 4790 4611 0
4727 4911 4851 0
4445 4913 4792 0
4914 4915 4789 0
4789 4915 4791 0
4677 4730 4916 0
4917 4795 4791 0
4917 4445 4795 0
4505 4853 4796 0
4684 4686 4798 0
4797 4562 4854 0
4797 4854 4684 0
4737 4736 4855 0
4801 4617 4687 0
4798 4686 4615 0
4918 4798 4615 0
4798 4918 4919 0
4919 4738 4798 0
4615 4739 4918 0
4615 4616 4739 0
4801 4564 4617 0
4857 4512 4856 0
4740 4801 4620 0
4858 4571 4920 0
4739 4688 4858 0
4921 4739 4858 0
4621 4922 4745 0
4804 4802 4744 0
4802 4691 4744 0
4622 4624 4860 0
4746 4861 4575 0
4692 4861 4626 0
4572 4627 4923 0
4864 4748 4749 0
4748 4924 4747 0
4925 4751 4625 0
4465 4810 4627 0
4926 4865 4751 0
4469 4865 4866 0
4752 4576 4810 0
4812 4867 4927 0
4754 4814 4811 0
4753 4868 4928 0
4928 4576 4753 0
4869 4812 4927 0
4628 4811 4814 0
4869 4815 4631 0
4695 4870 4929 0
4816 4696 4872 0
4930 4873 4756 0
4756 4931 4930 0
4759 4874 4932 0
4759 4701 4876 0
4699 4700 4818 0
4704 4819 4933 0
4764 4704 4933 0
4823 4876 4761 0
4827 4821 4823 0
4761 4827 4823 0
4589 4878 4586 0
4879 4641 4585 0
4707 4934 4765 0
4765 4883 4588 0
4880 4935 4936 0
4936 4937 4880 0
4938 4880 4883 0
4883 4765 4938 0
4642 4882 4828 0
4711 4641 4879 0
4711 4879 4939 0
4647 4881 4937 0
4937 4648 4647 0
4882 4591 4940 0
4835 4941 4590 0
4942 4941 4835 0
4941 4589 4590 0
4943 4884 4648 0
4648 4937 4943 0
4591 4769 4940 0
4833 4594 4711 0
4944 4890 4945 0
4890 4886 4945 0
4890 4888 4886 0
4889 4838 4650 0
4887 4714 4709 0
4946 4835 4543 0
4947 4714 4887 0
4773 4840 4948 0
4713 4714 4892 0
4840 4949 4948 0
4775 4839 4897 0
4950 4841 4489 0
4841 4950 4951 0
4776 4662 4843 0
4843 4895 4776 0
4952 4780 4598 0
4656 4953 4845 0
4848 4670 4898 0
4844 4846 4671 0
4901 4719 4899 0
4723 4849 4904 0
4954 4784 4783 0
4608 4785 4725 0
4783 4787 4909 0
4955 4605 4906 0
4956 4788 4790 0
4725 4957 4726 0
4610 4731 4910 0
4673 4908 4958 0
4729 4959 4853 0
4731 4852 4910 0
4917 4913 4445 0
4915 4917 4791 0
4683 4916 4730 0
4679 4613 4732 0
4799 4855 4960 0
4738 4961 4736 0
4960 4800 4685 0
4961 4738 4919 0
4918 4961 4919 0
4805 4742 4803 0
4962 4805 4803 0
4621 4689 4963 0
4745 4964 4808 0
4745 4922 4964 0
4965 4744 4860 0
4966 4807 4806 0
4862 4966 4806 0
4809 4808 4967 0
4968 4625 4626 0
4925 4625 4968 0
4923 4862 4572 0
4750 4969 4864 0
4970 4864 4969 0
4810 4576 4971 0
4971 4923 4810 0
4923 4627 4810 0
4925 4926 4751 0
4972 4973 4864 0
4970 4974 4972 0
4864 4970 4972 0
4975 4973 4976 0
4975 4864 4973 0
4974 4973 4972 0
4865 4977 4866 0
4866 4977 4867 0
4693 4811 4628 0
4978 4870 4815 0
4870 4978 4929 0
