#!ascii version written be Caret
6110 12216
3.932634 -2.659407 64.985611 0
4.454545 9.461087 59.535931 0
3.525157 34.798721 37.536396 0
3.741820 36.589428 34.887928 0
6.957930 46.463276 17.484577 0
7.805735 49.295490 8.633490 0
7.750543 48.232235 1.286924 0
6.548238 46.841595 -7.085179 0
6.062350 45.258202 -8.640340 0
4.105210 44.749756 -11.872817 0
5.963145 42.402405 -16.772625 0
8.128275 39.796135 -17.192389 0
22.876463 12.337271 -17.747183 0
24.131502 9.203465 -13.676137 0
31.578903 3.326342 -21.447084 0
25.751772 9.302633 -31.556314 0
26.815622 6.816715 -33.340672 0
33.324955 -4.087571 -39.751644 0
36.088646 -8.336550 -37.812481 0
37.926567 -11.750149 -29.815557 0
39.406631 -13.417628 -27.998926 0
40.566833 -17.328892 -24.450912 0
42.242332 -30.983852 -20.071756 0
41.650887 -43.465912 -18.547009 0
43.309193 -77.329491 -8.058902 0
42.648148 -83.824814 -2.375742 0
41.690437 -83.618950 0.528102 0
36.448311 -82.235191 5.263642 0
36.201061 -82.711105 10.546753 0
34.985451 -84.055595 13.988234 0
32.265644 -82.930565 17.677845 0
30.782000 -81.011551 22.130749 0
21.846296 -61.374191 56.240795 0
2.562846 -17.358137 71.229401 0
3.611096 -12.593657 68.611465 0
6.758956 -5.861339 66.702866 0
3.452096 30.677345 47.531311 0
3.462652 30.780392 43.863014 0
3.290379 32.856644 41.917904 0
4.949319 42.966702 26.978485 0
5.923450 45.704338 21.877718 0
7.137550 48.996025 11.724195 0
7.465802 50.097755 2.415014 0
5.583319 50.057117 -0.670625 0
11.223125 35.994446 -18.477234 0
11.374701 33.431648 -18.072050 0
13.161535 29.720058 -18.629663 0
16.629938 22.553438 -17.550463 0
20.478010 13.725350 -17.811575 0
32.352650 2.083637 -17.974342 0
28.901146 6.385104 -26.336969 0
37.536617 -10.783899 -36.467751 0
41.242458 -15.657179 -26.464651 0
42.207832 -26.740034 -20.275833 0
41.767841 -38.726055 -20.061220 0
42.958614 -47.865036 -14.263557 0
41.462391 -59.322781 -13.747899 0
42.366295 -65.994560 -12.315134 0
44.400188 -69.279617 -10.641723 0
44.916412 -73.089912 -10.167356 0
43.692154 -81.167206 -4.749555 0
32.820076 -82.589676 23.742428 0
30.440252 -77.824821 26.086870 0
29.819952 -73.733765 29.107452 0
24.782875 -63.581417 40.526844 0
24.919025 -63.825291 43.249596 0
18.899384 -55.928787 61.786236 0
13.466304 -45.013981 70.604652 0
8.207524 -38.410793 73.663918 0
5.210808 -36.850399 71.156647 0
4.338280 -25.571556 73.132126 0
4.088680 -21.574959 71.961739 0
2.870790 3.764922 65.381195 0
3.913990 9.941463 62.388088 0
3.502378 7.287617 64.088036 0
3.770753 11.918862 59.471729 0
3.258278 16.362076 57.197266 0
4.453880 20.694168 53.052414 0
4.104054 23.398401 51.398842 0
3.905062 25.535315 50.416206 0
3.334036 34.307201 40.490879 0
3.200148 36.611359 39.383839 0
4.647155 43.031151 30.961323 0
5.843863 48.045437 19.500967 0
5.804723 49.223804 14.935887 0
5.179399 50.127739 -2.653811 0
5.856391 50.410133 -5.473075 0
4.317438 48.574009 -10.089672 0
16.461262 24.871099 -17.608618 0
18.276270 19.373528 -16.702772 0
27.203190 5.565677 -11.907535 0
29.961971 2.032174 -13.457734 0
27.839785 8.775726 -28.186161 0
28.636425 4.402493 -34.699230 0
31.839520 -0.232260 -38.630081 0
42.209534 -22.717270 -21.756567 0
42.498871 -41.027325 -18.899019 0
43.026619 -55.808540 -13.833877 0
41.683697 -63.240395 -12.464849 0
43.222843 -64.542747 -11.133894 0
43.993248 -82.152451 -2.799669 0
37.370239 -82.638474 7.969136 0
34.319935 -83.467102 17.608135 0
33.144005 -83.127403 20.975212 0
23.580215 -63.718277 48.333549 0
23.674732 -61.869320 52.557461 0
21.950562 -60.223747 58.063709 0
20.433220 -52.143677 60.399895 0
15.145042 -46.318989 68.630974 0
3.691329 -0.927801 67.560005 0
3.201859 1.302357 67.063614 0
3.086959 14.185509 58.159801 0
3.818697 27.297430 49.004604 0
3.257428 38.430668 37.721680 0
3.772519 38.529564 35.698162 0
4.502069 39.862892 33.858841 0
5.120796 45.413376 26.003281 0
5.707150 48.958344 17.155630 0
6.929269 52.412125 10.517728 0
7.042195 51.410889 6.796755 0
4.211782 48.148216 -13.296333 0
5.853489 46.581421 -16.410370 0
8.587935 42.425198 -17.687548 0
10.198174 38.926117 -18.300192 0
15.567903 31.735104 -17.740131 0
32.205124 7.315653 -24.595675 0
26.996857 10.430168 -30.058788 0
29.921000 2.315570 -36.965500 0
34.172653 -2.253314 -39.220852 0
38.956448 -12.692335 -32.522541 0
41.118446 -14.252855 -29.559893 0
42.359535 -19.468166 -25.014156 0
42.544167 -21.073090 -23.506100 0
43.858517 -28.162481 -21.559292 0
43.866531 -33.029705 -21.395750 0
43.642323 -58.974815 -11.572269 0
42.775425 -61.469887 -11.240170 0
44.356369 -74.601837 -8.580214 0
42.568623 -77.728584 -4.729119 0
44.958748 -79.634422 -2.318607 0
44.052345 -81.412651 0.018791 0
39.937477 -80.471504 5.082600 0
35.557571 -83.149765 20.177502 0
32.423412 -81.736244 26.570393 0
31.078644 -77.168587 29.064289 0
28.637207 -68.282059 33.580479 0
27.186569 -65.402687 35.156898 0
18.000040 -50.757526 61.995300 0
15.664120 -47.159409 66.612816 0
7.827177 -9.482393 68.733887 0
4.137456 19.362175 55.610279 0
3.662259 33.649010 45.627323 0
3.423146 35.988548 43.474262 0
3.144354 36.447159 41.426754 0
5.224764 51.420013 14.345678 0
6.743389 53.414665 4.397200 0
4.003477 53.551071 0.754388 0
4.459796 51.717075 -1.028504 0
13.815391 35.389076 -17.826513 0
19.819096 17.960943 -16.513830 0
28.920736 9.352067 -32.781189 0
30.842712 3.568568 -33.692043 0
35.720985 -4.280107 -39.334236 0
43.354362 -25.518356 -21.799810 0
43.333248 -45.316380 -16.450251 0
43.792419 -80.484131 2.586974 0
38.435501 -81.369003 6.195660 0
39.424911 -81.609024 8.398525 0
36.528965 -83.313675 17.802706 0
33.639847 -82.241257 28.936079 0
21.844408 -59.722149 60.150146 0
21.056349 -55.652504 62.152103 0
15.293852 -44.246243 69.222839 0
4.410604 -16.532484 71.595306 0
4.880136 -13.748069 70.165276 0
3.233006 13.159890 61.594223 0
2.974087 15.374519 60.144100 0
3.290403 28.445414 50.818348 0
4.419737 42.291679 34.089466 0
4.630952 46.080528 27.885799 0
5.126839 47.703308 25.163345 0
5.247772 50.541004 20.130100 0
4.917866 51.041904 16.339659 0
6.725535 53.146023 7.858637 0
5.131557 52.459763 -4.618075 0
4.346782 52.091694 -8.553347 0
4.335162 52.736404 -10.865600 0
7.754283 45.513790 -17.372669 0
10.751867 40.964867 -18.174473 0
16.864592 27.293066 -16.923645 0
23.951662 14.537732 -17.762344 0
30.189905 8.497593 -26.652895 0
29.034481 11.517977 -29.065882 0
27.609993 11.723503 -31.565426 0
29.296631 6.573513 -33.172482 0
39.294491 -12.766397 -34.667213 0
44.720211 -36.380295 -20.651543 0
43.792507 -42.858433 -18.254915 0
45.159470 -55.181297 -13.179440 0
38.994259 -80.638222 11.513241 0
37.801910 -81.724556 13.396957 0
30.039341 -70.921295 33.741821 0
24.104752 -64.173904 46.008324 0
17.379042 -45.927959 65.209023 0
12.648096 -40.075218 70.948029 0
10.002598 -36.125134 73.279892 0
7.948165 -35.910332 70.239929 0
5.068411 -33.407433 70.261726 0
6.517581 -27.362627 72.842407 0
7.002763 -23.461107 73.426231 0
6.879511 -20.290451 72.650925 0
5.824764 -2.849056 68.300919 0
4.299884 4.456545 67.740753 0
4.446999 7.756306 66.276070 0
4.259979 10.562636 65.040390 0
3.969298 23.794439 55.399059 0
3.349308 26.867500 53.706226 0
3.202358 39.087616 40.726841 0
3.386528 40.319359 39.087955 0
3.825440 40.173302 36.735401 0
5.107384 50.521042 24.230106 0
4.271646 54.235321 -6.965388 0
5.841490 49.862869 -15.812346 0
12.572760 39.799431 -17.554541 0
19.061123 23.390368 -15.905756 0
19.948280 20.827860 -15.444815 0
24.739075 12.666906 -16.956774 0
27.266268 8.253380 -11.496709 0
30.023722 3.682298 -12.110352 0
33.394638 3.008282 -19.539249 0
33.808445 0.667868 -34.157417 0
34.121460 -0.865771 -37.258251 0
43.368191 -16.963896 -28.699677 0
44.187309 -39.120178 -19.661730 0
45.467205 -78.493233 0.269743 0
37.482700 -82.373100 16.096100 0
32.221661 -78.368660 30.683510 0
31.556820 -75.510841 31.796476 0
27.111830 -63.970123 36.887623 0
23.454243 -60.014347 55.716263 0
23.488014 -56.156101 62.578602 0
19.942345 -49.747375 61.650566 0
19.075434 -48.259483 64.368332 0
6.861874 -34.773041 68.840042 0
5.864828 -30.913479 70.674622 0
6.255776 -15.316595 70.962608 0
7.619752 -4.522254 68.571373 0
5.379960 0.558995 69.109222 0
4.132632 23.047701 57.663033 0
3.083703 30.422598 50.403351 0
4.130610 42.490784 36.717506 0
4.213051 44.285328 33.381313 0
3.896695 47.772999 29.764214 0
6.189752 54.530613 11.477356 0
6.472541 56.213448 5.765938 0
4.109879 55.215324 -2.764723 0
5.334714 51.909904 -14.242515 0
8.176120 47.939201 -17.006201 0
10.436645 44.079689 -17.775816 0
18.345737 28.361416 -14.981195 0
25.302835 11.503522 -13.427308 0
31.841356 1.967548 -14.246033 0
30.969021 11.399080 -27.465759 0
28.777683 13.124043 -30.646179 0
31.341158 6.798936 -32.711788 0
38.240623 -5.530046 -38.566227 0
38.830715 -8.828859 -37.595482 0
40.801964 -12.265945 -36.020981 0
41.928558 -14.300292 -31.741016 0
45.102001 -70.887482 -7.412798 0
43.963570 -73.262627 -6.704265 0
42.870907 -73.967407 -4.026313 0
43.897114 -75.323654 -1.602047 0
44.672516 -77.400597 -1.679849 0
38.557991 -80.613297 15.189780 0
38.423584 -80.883408 17.644032 0
29.400358 -66.796455 34.774891 0
26.570278 -63.793541 39.430073 0
23.967537 -58.387478 57.366631 0
15.283789 -41.475578 68.580284 0
11.496121 -37.297287 72.253220 0
9.108304 -6.140248 68.566193 0
3.680931 18.896645 58.244884 0
4.014693 20.856373 57.961430 0
2.989631 32.650890 50.284676 0
4.487915 53.460575 15.105844 0
6.073673 55.810741 9.772891 0
4.863341 56.273102 3.236279 0
4.209008 56.939091 -5.248678 0
4.204140 54.393002 -9.439750 0
7.251115 52.164127 -15.682234 0
8.517542 50.206707 -16.555685 0
14.057843 38.619442 -16.371986 0
16.132999 33.337399 -16.443300 0
22.498177 18.869524 -15.632252 0
26.332890 10.746284 -11.843358 0
28.987249 6.274660 -11.300772 0
33.780117 5.005675 -22.002871 0
31.980141 9.155678 -25.552343 0
29.794565 12.964227 -32.579247 0
33.763950 3.840748 -32.432796 0
40.238510 -10.240111 -37.150669 0
41.387058 -13.520223 -34.070648 0
43.872604 -21.391090 -25.423615 0
44.405434 -24.315586 -23.470261 0
46.118099 -51.852230 -13.468678 0
45.271854 -64.313805 -10.220552 0
45.602737 -67.073456 -9.532499 0
45.393326 -68.877831 -7.396751 0
41.318848 -80.114326 9.645988 0
42.399658 -79.270676 7.599749 0
37.382080 -81.746826 23.045048 0
36.287022 -82.216118 25.954601 0
33.776840 -79.422188 31.935442 0
26.739799 -64.297165 42.211422 0
23.865993 -57.580135 60.301075 0
16.762575 -43.819233 66.620895 0
9.066374 -24.792336 73.411285 0
4.410141 12.515693 63.867748 0
3.100853 30.574572 53.379696 0
3.561251 35.094803 47.378017 0
3.591070 36.777119 46.250916 0
3.645692 39.596706 44.637604 0
3.464628 43.343048 40.722591 0
3.637234 47.553589 31.821562 0
4.535328 50.426838 27.604736 0
4.190050 53.370022 17.676264 0
5.415294 56.326790 12.983813 0
3.985317 56.814423 1.138087 0
4.030516 57.626919 -0.971971 0
4.796683 57.415257 -8.973933 0
5.180890 55.116951 -11.208900 0
5.539860 53.852798 -12.814400 0
10.434351 47.603168 -16.760389 0
12.152191 42.971592 -17.059860 0
17.526209 34.447571 -14.317624 0
21.573074 21.874317 -13.795610 0
26.258377 14.325958 -17.003599 0
36.792057 -0.585907 -35.207493 0
37.936886 -2.839740 -37.418468 0
43.826389 -15.738523 -30.843847 0
45.895103 -27.387121 -23.014450 0
45.445469 -40.811161 -19.598104 0
45.118069 -46.734299 -15.534602 0
46.248520 -62.313046 -10.825978 0
43.670849 -71.608932 -5.071316 0
45.355827 -78.402306 2.606028 0
45.031433 -78.330421 4.904454 0
41.771797 -78.771576 11.190290 0
39.718395 -78.001083 14.522346 0
37.953423 -81.498177 20.459541 0
33.283810 -77.505516 33.487698 0
31.707256 -74.074760 35.469688 0
31.238634 -71.714912 35.957405 0
30.654528 -69.367622 35.092369 0
29.388371 -65.335831 36.482765 0
26.987318 -63.738831 46.659538 0
27.187986 -62.659424 48.734982 0
25.924040 -58.442947 54.900150 0
22.921824 -53.730766 61.975880 0
22.498917 -50.634525 60.644188 0
7.164495 -17.376499 71.453293 0
7.297706 -1.321406 69.134811 0
5.054984 19.793695 59.827888 0
4.832600 16.458982 62.140457 0
3.702675 45.345177 38.217354 0
3.457721 48.022202 35.673027 0
4.300111 53.148472 22.533760 0
4.107424 55.394367 16.369719 0
6.250509 58.578979 7.394323 0
5.206124 58.500938 3.986692 0
18.660408 30.242275 -14.094643 0
20.794289 25.546532 -13.792274 0
25.198233 16.534372 -16.837814 0
34.061470 1.436763 -15.341094 0
33.100792 11.450491 -25.584408 0
31.864519 13.932772 -28.031557 0
30.292627 14.733675 -30.394741 0
32.392727 9.200560 -33.546696 0
34.042831 5.969143 -32.805721 0
35.567028 1.839003 -32.840054 0
40.542820 -7.206940 -38.118969 0
44.334560 -14.132419 -33.614853 0
44.397579 -20.031366 -27.484438 0
46.583870 -44.369144 -18.560032 0
48.666443 -56.021008 -13.724196 0
46.989449 -64.864105 -8.434490 0
38.918594 -79.988342 21.471966 0
27.886589 -60.995579 51.583645 0
8.241815 -28.052204 71.659851 0
10.409751 -22.624004 73.248436 0
9.005715 -2.406718 68.899101 0
6.178537 5.464248 67.476974 0
4.153471 26.347696 57.099331 0
3.926360 29.174419 56.103680 0
3.413511 35.356850 51.144058 0
3.556480 37.969120 49.476292 0
3.218323 50.685326 31.673115 0
4.278183 54.127800 28.027054 0
3.841158 54.306412 20.106068 0
5.384982 58.839066 11.497923 0
4.852836 59.503769 1.403461 0
4.625926 59.272980 -3.508622 0
7.870803 55.197891 -12.776761 0
12.320654 46.283440 -15.961666 0
14.010443 44.249096 -15.064362 0
32.404938 2.914523 -12.213970 0
34.352970 9.634316 -23.951647 0
43.320671 -12.798918 -35.399040 0
45.790791 -22.663675 -26.561403 0
46.469799 -31.187420 -22.728249 0
46.320503 -48.864689 -15.353823 0
48.090916 -59.247494 -13.162969 0
42.619602 -71.751610 -2.371302 0
44.515797 -76.840034 10.070494 0
40.461922 -76.288849 16.472904 0
39.296528 -78.597672 17.999718 0
31.219378 -67.667549 36.784191 0
28.312498 -64.768715 38.792210 0
25.272808 -55.993530 61.089436 0
14.599108 -38.571304 68.626129 0
8.650634 -34.123505 65.585884 0
8.287885 -32.023273 66.631027 0
7.969593 -30.841999 68.549286 0
8.498023 -14.850659 69.996613 0
10.088513 -12.209283 69.194908 0
10.526625 -9.606621 69.101898 0
10.239459 -4.315880 68.719742 0
7.389854 3.756993 67.526733 0
3.499190 33.311863 53.265011 0
3.516152 42.457836 43.021271 0
3.785866 51.666626 29.928919 0
3.830405 57.143372 18.873295 0
5.101317 59.273319 15.100154 0
4.863258 59.800663 -0.745655 0
5.159470 59.276199 -5.502210 0
10.263770 53.528137 -14.013518 0
11.483519 51.475834 -14.398824 0
16.560993 40.387280 -13.644430 0
21.024340 28.894066 -13.136006 0
32.653667 11.235561 -34.129566 0
33.017490 13.251193 -34.151760 0
39.187428 -1.471588 -36.332088 0
40.188427 -4.584197 -37.997940 0
42.014866 -8.951327 -37.365650 0
45.668880 -17.097773 -30.991035 0
48.479637 -30.193089 -24.185955 0
46.239597 -33.952049 -22.027527 0
46.755917 -38.368137 -21.456566 0
49.382584 -53.846142 -14.781702 0
45.903019 -66.726540 -7.357443 0
43.826290 -69.236511 -4.528057 0
44.558720 -75.127647 1.470666 0
45.131031 -74.731255 4.780216 0
38.580612 -79.086571 24.652744 0
36.312889 -80.714172 28.664755 0
36.875637 -78.827072 31.549433 0
24.134211 -51.908802 61.524231 0
18.329542 -43.941772 64.263306 0
16.858259 -41.700855 65.522179 0
12.956916 -34.979767 72.297211 0
11.385739 -34.350826 70.647629 0
10.473441 -34.123375 67.127625 0
9.178925 -28.958300 69.636589 0
9.677366 -0.033976 68.346809 0
7.459006 7.968694 66.164726 0
3.789171 41.040672 47.474140 0
4.182077 46.695148 41.063175 0
3.863192 56.695530 22.855961 0
6.333799 61.471931 -0.196044 0
6.341911 60.895786 -3.151102 0
7.192026 59.852451 -6.214151 0
12.496700 48.432201 -14.773900 0
14.427300 46.586597 -13.748101 0
15.707422 43.681770 -13.605606 0
17.887568 38.127899 -13.015100 0
27.557386 17.645231 -16.327778 0
27.867844 15.587103 -16.578363 0
31.786140 5.276256 -10.562205 0
35.049324 2.255748 -18.317427 0
32.978989 16.190641 -31.999937 0
35.797707 10.228219 -35.781616 0
38.247997 4.641990 -35.138653 0
37.603119 1.246025 -34.168766 0
42.659981 -4.044909 -37.743706 0
42.805500 -6.429631 -38.122082 0
46.015736 -19.641912 -29.477749 0
46.214489 -21.370581 -28.336966 0
47.653660 -24.671434 -26.531908 0
47.034782 -42.776661 -19.735613 0
48.460800 -50.854397 -16.123894 0
45.218513 -76.217590 7.375834 0
43.000332 -74.669090 13.140241 0
41.603382 -75.691322 20.576643 0
37.705933 -79.087502 27.415733 0
35.380833 -77.322113 33.750019 0
31.201168 -66.897926 39.740341 0
28.697155 -64.582146 44.542061 0
25.544531 -53.821121 62.234287 0
22.731255 -48.143272 62.233444 0
21.429066 -46.498257 64.766327 0
9.554593 -17.215958 69.977104 0
13.019656 -6.122775 68.752068 0
10.197571 2.734147 66.809502 0
6.855254 11.222351 64.599480 0
7.167221 14.944866 63.361378 0
3.902256 42.848232 45.342808 0
4.021914 48.453381 39.627941 0
4.537924 57.777008 24.778519 0
5.830411 60.496754 9.306087 0
5.866359 61.430626 5.452597 0
9.586225 58.060921 -9.385912 0
11.009852 55.765507 -12.405505 0
20.358402 32.692715 -13.195604 0
22.071217 27.326899 -12.341558 0
23.955053 20.959934 -13.504070 0
25.414331 19.892347 -14.513974 0
26.697594 12.919517 -12.000563 0
36.136131 4.407509 -19.744295 0
35.800293 6.883662 -21.089098 0
33.925018 15.276625 -26.387691 0
33.321350 16.727760 -29.158440 0
36.940769 7.552751 -35.403294 0
44.201206 -9.381258 -37.163136 0
46.155140 -12.596269 -35.892456 0
46.685810 -14.940134 -33.546028 0
48.876995 -28.362473 -25.095119 0
47.821278 -36.722607 -22.416950 0
48.198250 -46.554127 -18.291616 0
48.902813 -60.687229 -11.603666 0
49.337044 -61.976654 -9.571527 0
44.685719 -65.584923 -4.324587 0
43.250252 -72.414261 1.969351 0
39.611340 -78.168732 22.729765 0
34.177860 -74.504448 37.324600 0
29.218229 -65.163910 41.692211 0
24.624294 -49.746990 61.094566 0
10.293951 -27.042728 71.130623 0
11.375359 -2.411008 68.373314 0
9.995886 6.111649 66.333008 0
8.801087 10.049359 64.494568 0
8.966837 19.707232 59.969166 0
6.679074 22.875704 59.037197 0
6.563398 25.588406 58.325344 0
5.087495 32.069923 56.017742 0
5.091851 35.032173 54.707561 0
4.405133 37.544159 52.670197 0
4.774059 41.761875 49.882095 0
3.320825 52.436447 33.900654 0
3.928336 54.307743 31.789984 0
5.051397 59.366570 18.160351 0
5.520019 60.553463 13.415956 0
5.683809 60.991817 11.314645 0
6.123299 61.526566 7.576198 0
14.537560 49.051094 -13.071791 0
19.053808 40.662491 -11.677638 0
19.137300 35.703800 -12.844900 0
22.927301 23.943243 -11.558887 0
27.257309 11.884969 -10.343724 0
29.486069 8.279760 -10.373597 0
34.989487 13.808588 -34.042572 0
40.758011 -0.597420 -35.406410 0
48.254581 -20.723166 -30.530897 0
48.072655 -23.134132 -28.355347 0
48.588531 -33.218483 -23.489037 0
50.414646 -39.756325 -22.867258 0
49.697742 -45.531956 -20.014879 0
46.239006 -63.925362 -5.671956 0
41.748005 -67.736320 -1.610276 0
45.257111 -73.726837 6.589386 0
42.164459 -72.921333 15.104442 0
32.591183 -70.749451 38.155003 0
26.331766 -56.822315 57.177956 0
24.989841 -45.255253 63.296776 0
16.322390 -38.715057 65.817924 0
13.827633 -32.687901 69.624504 0
10.149711 -29.321432 67.749283 0
12.677617 -24.381512 72.234535 0
10.927210 -19.125776 70.845619 0
11.596517 -13.592837 67.464706 0
9.406427 16.355608 62.709507 0
5.729105 28.713511 57.554996 0
5.663890 40.361603 51.223644 0
4.215651 51.686226 37.762123 0
4.806460 57.346050 27.426100 0
5.346283 59.262955 21.779673 0
6.360166 61.341621 17.071161 0
7.102064 62.392796 3.716254 0
12.026400 56.952599 -10.894800 0
13.784332 56.107491 -11.846564 0
13.680179 53.174534 -12.963799 0
17.356976 44.525124 -12.066549 0
20.989658 38.285477 -11.162556 0
34.962128 13.104898 -24.036715 0
44.875027 -6.442672 -37.482479 0
47.426594 -17.854687 -31.834196 0
50.117821 -26.637709 -27.277031 0
49.323124 -35.434406 -23.460955 0
48.155384 -41.079296 -21.348402 0
49.227692 -43.638702 -20.823118 0
50.407955 -48.255310 -18.713165 0
51.369549 -50.679539 -17.841217 0
50.682381 -52.226173 -16.405605 0
51.433678 -55.777885 -14.332180 0
50.839775 -59.139339 -13.018924 0
42.156227 -65.354454 -1.412734 0
40.842216 -67.175652 0.437534 0
38.456116 -77.259651 30.584995 0
27.038445 -51.414349 61.555145 0
26.413368 -47.512581 61.688141 0
21.439714 -44.363297 64.535370 0
17.009329 -39.587345 63.980915 0
9.786637 -33.607903 63.435436 0
10.833902 -15.385461 68.192055 0
13.379705 -3.511268 67.962006 0
10.047898 11.898026 63.365494 0
5.009825 45.338272 44.424877 0
3.828181 52.868656 35.798000 0
4.255051 54.403992 33.900063 0
4.851083 56.220196 30.594248 0
7.219578 62.379246 9.800274 0
8.352381 61.981838 1.610389 0
9.168072 60.977318 -2.001483 0
10.847329 60.373116 -3.761661 0
10.949746 59.295364 -6.887938 0
16.851093 47.135536 -11.950925 0
22.830120 32.251911 -12.237798 0
25.737646 22.452293 -12.461267 0
27.572800 14.146200 -14.106200 0
35.932690 10.156512 -21.836071 0
35.711178 17.563772 -26.670229 0
38.178577 10.015669 -35.867496 0
39.849018 2.207866 -35.173996 0
46.412960 -9.679465 -36.903988 0
52.736706 -57.241871 -13.851004 0
51.271011 -59.975727 -10.863387 0
50.056866 -61.488964 -7.682742 0
48.264286 -61.569916 -5.165040 0
45.548500 -62.531406 -3.472198 0
42.110176 -69.607124 3.438765 0
43.426483 -71.675156 4.309440 0
44.590813 -71.556122 6.932806 0
45.111187 -73.063332 8.610845 0
41.615128 -73.908936 19.155659 0
39.628662 -75.935196 26.796648 0
35.098209 -75.958794 35.235340 0
29.259211 -63.725712 46.343193 0
18.511114 -39.829086 61.850792 0
16.543941 -35.626888 70.925598 0
16.177748 -33.302364 72.298294 0
12.699026 -26.367308 70.178062 0
12.833172 -21.818420 72.664612 0
13.566724 -10.192977 67.493538 0
12.481777 1.600679 66.660347 0
11.034677 9.198792 64.365547 0
9.019674 22.749496 59.037785 0
6.088417 47.444000 42.976727 0
5.318861 50.454586 40.147251 0
5.649816 57.734844 29.484356 0
7.066470 60.945004 19.813049 0
7.382219 61.670719 12.996593 0
8.207535 62.710449 5.672640 0
15.680477 50.993748 -12.371226 0
22.128529 35.262253 -11.921089 0
23.948153 29.868908 -11.072530 0
24.269241 26.379929 -10.173391 0
29.791649 16.108801 -15.546883 0
35.817520 17.099836 -29.967764 0
37.083916 11.943876 -34.786957 0
39.290909 7.656760 -36.141376 0
48.359100 -11.794518 -36.014252 0
49.135410 -14.746408 -34.610397 0
50.076439 -22.665327 -29.935684 0
50.770187 -28.819305 -26.353765 0
52.102287 -53.676056 -15.691682 0
54.233837 -58.478840 -12.597270 0
43.627262 -63.359344 -1.808481 0
41.014137 -75.921089 22.876947 0
38.141499 -74.900627 32.814968 0
32.316250 -68.937447 39.220940 0
29.431450 -61.586338 49.373013 0
21.484692 -42.197018 62.915924 0
16.143251 -37.057037 69.043312 0
10.770565 -30.579416 64.013603 0
12.963233 -27.282011 68.196693 0
11.960764 -28.638809 66.136787 0
14.909452 -8.530993 67.317093 0
6.716580 36.193489 54.567554 0
6.754182 45.192940 45.955376 0
5.808135 56.177483 32.363506 0
6.240919 58.696201 26.390387 0
9.734097 63.156273 7.703527 0
9.794955 62.618954 4.090495 0
13.412562 59.277172 -6.767602 0
13.566645 58.178123 -8.976668 0
16.122093 54.311939 -11.821583 0
17.098484 49.790081 -11.527363 0
18.706551 44.478493 -10.555818 0
29.001118 19.708748 -15.487117 0
37.246807 9.235327 -20.447645 0
36.174080 14.422878 -22.278076 0
36.760815 15.578579 -30.908930 0
36.940628 13.529996 -32.501595 0
41.842232 5.848493 -35.609837 0
41.671947 1.416579 -34.413197 0
49.789524 -18.974117 -32.414906 0
52.045586 -31.407562 -25.791828 0
51.510029 -35.501232 -24.479536 0
51.337303 -43.562202 -21.459030 0
53.465164 -46.178768 -20.280384 0
53.889927 -49.898502 -19.177177 0
52.259880 -60.219677 -8.283195 0
36.775318 -75.000420 34.571144 0
34.125526 -71.685425 39.122326 0
29.289768 -54.119709 58.683102 0
28.940063 -49.933434 61.227146 0
13.661715 -19.608404 71.500916 0
12.202951 -16.841887 68.311592 0
14.726686 -0.781890 66.473282 0
9.192485 28.561844 57.536777 0
6.086015 52.836216 37.640160 0
6.598025 54.911568 34.120750 0
7.895668 58.478874 29.678543 0
11.113822 61.919914 2.517685 0
13.394513 59.849281 -0.847033 0
15.925213 56.835709 -10.272367 0
18.381714 47.096924 -10.442388 0
20.039003 42.244755 -10.003199 0
23.999100 33.749111 -11.116405 0
27.950855 14.664850 -12.548967 0
31.218410 9.252092 -8.769217 0
38.941284 11.191955 -34.305611 0
41.005653 9.069171 -35.677876 0
46.814301 -5.976208 -36.406281 0
50.157101 -12.929424 -35.010578 0
51.589130 -17.020519 -33.576916 0
50.595890 -20.996382 -31.106232 0
55.959141 -53.816216 -14.994580 0
53.497208 -55.590889 -14.799706 0
53.229862 -59.457756 -10.907599 0
41.244019 -64.544617 0.569701 0
40.954998 -66.351456 3.366693 0
43.176899 -71.525307 11.873569 0
40.189873 -74.588203 28.650553 0
33.687366 -69.472572 40.702484 0
33.361748 -64.486435 43.878571 0
27.872885 -56.114773 55.763603 0
28.637449 -52.031387 60.502411 0
13.226517 -33.245029 65.195618 0
11.057438 -32.299992 61.483791 0
14.808316 -23.193344 72.439896 0
14.014670 -15.693437 66.106842 0
13.797324 -12.723884 65.833443 0
15.858834 -5.224047 67.346489 0
15.560842 4.832622 65.613853 0
12.954900 6.731930 65.541100 0
12.899196 10.658681 63.460361 0
13.120142 16.329369 63.233875 0
11.322669 18.259384 62.281425 0
12.168610 22.425041 59.921982 0
11.044435 20.587286 60.222588 0
11.484060 25.088400 58.776848 0
8.914634 31.815296 55.287399 0
8.140937 59.088989 24.495703 0
9.093998 61.450222 17.937181 0
9.747829 61.764561 12.736469 0
11.466917 62.942215 5.740035 0
14.797351 59.436161 -4.475758 0
17.826439 52.743427 -10.798346 0
23.545782 36.339783 -10.516431 0
26.850155 25.203093 -10.242132 0
31.556068 17.998295 -15.589628 0
26.936005 14.355633 -10.067955 0
34.533459 1.644576 -12.111760 0
38.195805 6.954981 -19.582029 0
37.095985 12.886916 -20.524015 0
37.321884 16.447742 -21.701984 0
38.005424 18.150061 -24.737864 0
39.113625 11.547830 -32.017635 0
44.144718 -3.765845 -33.914207 0
48.724823 -7.322525 -35.505932 0
53.302048 -18.492910 -32.046371 0
52.753937 -23.678543 -29.536442 0
54.234844 -59.345772 -7.974269 0
43.272976 -68.510063 7.425881 0
41.746403 -73.073845 24.024532 0
37.193073 -72.418938 34.867584 0
27.879059 -45.283146 61.612030 0
15.741684 -24.973009 71.005226 0
16.536819 -7.155454 66.712677 0
8.243830 48.788475 41.368965 0
8.312569 50.868904 38.936584 0
17.717413 55.642803 -9.775639 0
20.467207 52.069294 -8.959048 0
20.100372 45.403755 -8.964203 0
22.705143 40.774570 -8.645442 0
25.098236 31.711794 -9.679741 0
25.707672 29.561327 -8.666323 0
29.151339 22.363100 -13.508665 0
30.099436 16.139296 -13.124679 0
34.164654 2.905524 -10.372814 0
38.511406 16.898748 -27.487106 0
38.457485 12.847765 -30.494310 0
53.984463 -20.965265 -30.464594 0
53.020641 -42.574100 -20.667999 0
55.812149 -56.200832 -13.678873 0
55.025185 -58.777565 -10.194122 0
49.038292 -60.275642 -3.470036 0
44.120728 -61.916294 0.699902 0
39.727005 -73.228645 30.279058 0
36.967319 -70.240913 39.371677 0
35.630108 -69.398277 41.377342 0
34.363457 -67.867737 42.558094 0
31.606970 -63.108643 46.301003 0
31.068365 -50.502697 59.474728 0
29.045103 -47.020393 61.641804 0
16.788250 -31.552433 69.675804 0
13.530575 -33.344116 61.612827 0
17.031593 -22.367661 72.511223 0
14.148813 -17.345121 68.368599 0
14.778129 8.197324 64.141663 0
8.442852 36.907692 52.561630 0
7.758103 40.803249 49.587952 0
7.539845 43.126507 47.881046 0
8.031215 52.622223 36.739014 0
10.025323 52.812904 34.707878 0
9.276952 55.162224 32.637783 0
9.565537 60.090942 20.736269 0
12.106212 61.372421 14.280130 0
12.778751 62.707783 8.771051 0
13.211329 62.400726 3.981058 0
14.559128 61.312309 2.788807 0
16.148701 58.196301 -6.805790 0
18.048573 56.846489 -7.489277 0
19.170166 54.217754 -9.234987 0
21.461142 43.220234 -8.665808 0
25.519012 34.350273 -8.402302 0
27.924828 13.113842 -8.156186 0
36.383377 -0.707555 -15.972615 0
37.692215 1.284416 -18.458467 0
44.525143 9.781931 -32.180504 0
44.276951 5.243101 -33.542950 0
43.623863 1.162322 -32.462513 0
44.305954 -2.577753 -30.814651 0
47.137268 -5.637578 -33.707394 0
52.614117 -25.865305 -28.189648 0
53.068569 -27.858227 -27.231443 0
55.104229 -29.141375 -25.782970 0
53.778812 -32.908676 -25.200659 0
53.554214 -36.241463 -23.289415 0
53.015114 -38.231388 -21.634380 0
55.220409 -47.056389 -19.889872 0
55.993347 -51.042480 -16.654379 0
52.229946 -59.323078 -5.211459 0
42.062027 -63.679436 3.065885 0
42.153797 -66.022682 5.650795 0
42.270668 -69.907066 14.027230 0
41.007900 -73.731400 26.408701 0
38.955566 -70.360725 33.301880 0
27.435478 -58.337574 51.234249 0
28.838203 -55.217930 54.134277 0
27.598480 -56.745010 52.541615 0
19.209541 -36.092464 67.063988 0
17.824459 -31.141031 67.283623 0
13.570701 -32.604103 59.568657 0
12.783533 -30.635712 60.466881 0
12.692009 -29.313105 63.382107 0
14.172191 -27.355120 66.482498 0
15.821498 -26.465910 67.542358 0
16.530987 1.403367 65.201675 0
14.263843 22.009146 59.796455 0
11.011407 29.267412 56.246044 0
9.109470 35.075447 53.469513 0
8.797326 46.294392 44.058914 0
9.780026 56.468292 31.053286 0
10.517043 57.879620 26.063623 0
10.979994 58.356770 22.785261 0
11.094024 59.878773 19.249769 0
14.348348 62.172184 11.906389 0
15.782813 58.998524 0.428587 0
17.103682 58.369926 -4.221985 0
20.379351 48.640602 -9.012486 0
24.610723 37.431671 -8.479327 0
27.467403 28.344072 -7.766596 0
29.340897 24.187401 -11.627485 0
41.688583 10.743085 -32.023556 0
43.211887 7.675371 -34.497101 0
52.199902 -13.782691 -33.355843 0
55.032112 -26.423223 -26.801912 0
55.941010 -43.707253 -19.740204 0
55.817268 -48.616169 -18.755613 0
47.517891 -59.888081 -0.809869 0
42.729481 -69.195221 10.769098 0
41.406204 -70.317284 16.994562 0
41.122089 -71.798058 19.761995 0
42.183182 -71.727722 27.292492 0
38.192295 -70.119865 35.789185 0
19.007648 -32.594933 71.904556 0
15.039757 -32.808994 63.848053 0
15.401515 -28.375290 60.935623 0
16.732903 -19.570393 71.284607 0
16.942600 -1.767769 65.422844 0
11.942462 27.472092 57.413486 0
11.468773 34.747040 50.981991 0
9.172787 38.689674 50.058632 0
9.763041 42.436085 46.878922 0
11.391654 55.018223 31.385801 0
11.227078 56.608746 29.404842 0
15.753277 62.313080 10.297082 0
14.373300 62.127102 6.877440 0
15.751444 61.238937 4.759756 0
19.937551 55.726299 -7.472504 0
32.280487 21.563911 -14.133161 0
39.581997 3.552647 -18.535889 0
38.599644 12.562456 -18.904465 0
38.295403 14.673162 -19.627832 0
39.566540 17.216242 -20.440920 0
40.513489 17.434132 -23.353550 0
40.163498 11.579344 -27.899498 0
45.907120 -4.972416 -31.997986 0
49.375172 -7.636273 -31.011002 0
50.883816 -9.235724 -32.906498 0
53.399876 -15.885522 -31.169731 0
54.881058 -24.170219 -27.786959 0
55.145477 -33.916340 -22.998264 0
53.772316 -40.449722 -20.495796 0
43.604420 -62.470894 3.497363 0
42.895672 -65.478516 7.816278 0
41.721939 -71.969246 22.908930 0
40.087254 -71.295036 31.241537 0
35.742496 -66.147308 44.243008 0
33.203808 -61.079304 47.472851 0
30.078609 -53.673157 54.858845 0
31.832479 -48.131287 60.456043 0
24.914309 -43.252354 61.318378 0
19.135527 -37.319675 64.407379 0
19.705774 -34.635448 69.599808 0
16.197083 -27.202202 64.234909 0
16.499994 7.048091 64.131981 0
15.838105 12.065451 62.496525 0
13.537222 24.181017 59.036686 0
10.873089 31.835617 53.413658 0
11.561514 43.769714 44.219627 0
10.981093 51.417595 35.966335 0
13.093262 56.754581 24.103531 0
12.744508 58.057693 21.597944 0
12.660789 60.568707 16.516329 0
22.685791 44.986565 -8.149531 0
27.521345 31.556646 -6.717446 0
27.954201 26.487200 -9.139340 0
33.637726 19.151423 -13.829456 0
38.309341 -0.543515 -17.733604 0
40.184547 16.017794 -25.544037 0
41.887337 10.385624 -29.346081 0
47.566921 -5.903613 -30.085514 0
51.829937 -11.191913 -31.878504 0
54.173679 -18.876839 -29.674404 0
55.448654 -56.618774 -9.104091 0
45.596889 -61.275951 2.043787 0
42.915489 -66.160339 9.914737 0
42.453873 -67.569176 14.033181 0
41.791153 -68.043930 16.822260 0
41.245350 -67.743698 19.306650 0
38.642635 -68.867470 39.992710 0
37.365551 -67.522362 43.065388 0
31.637743 -59.889400 48.496376 0
28.702515 -58.098946 49.323174 0
30.939877 -51.930866 56.303257 0
21.837046 -39.583561 58.775887 0
19.891245 -30.715872 70.236343 0
15.057982 -14.140529 64.703644 0
16.586111 -11.813893 63.278584 0
17.776770 -3.958200 64.734573 0
17.555548 9.367311 62.136143 0
14.716047 18.661221 61.523609 0
14.250459 26.473097 57.166977 0
12.845665 31.131052 51.667347 0
10.611562 40.712955 48.123848 0
10.680080 46.057560 43.060932 0
11.572943 48.529934 39.662731 0
12.141834 56.478989 26.962805 0
14.243912 58.323837 19.703259 0
15.774738 60.980648 14.065854 0
17.322435 61.161575 8.399964 0
17.885353 58.977074 3.623891 0
20.518202 56.406479 -4.857015 0
22.256516 53.988007 -7.827575 0
22.856623 50.102844 -8.457772 0
24.666166 44.077271 -7.626626 0
30.095715 26.106804 -9.775471 0
32.601212 17.804605 -12.257977 0
27.857252 16.900152 -9.331075 0
32.958042 7.726149 -8.206036 0
34.320057 5.336799 -7.685843 0
40.505817 9.907411 -17.499495 0
40.579319 14.007234 -17.300037 0
40.092861 16.125803 -18.734133 0
45.614235 7.504460 -32.042351 0
45.392925 3.221334 -31.761318 0
54.828297 -21.985695 -27.491163 0
55.524078 -31.332508 -23.665937 0
54.179489 -36.333557 -20.481596 0
55.653404 -38.125515 -19.377594 0
56.444073 -40.106930 -18.789549 0
55.829903 -48.292450 -16.554573 0
55.504452 -52.814323 -12.154636 0
49.573376 -57.899860 -0.690866 0
43.083294 -65.815094 12.441705 0
40.714474 -69.130600 32.040997 0
40.029057 -68.333603 38.448044 0
35.443745 -63.682217 45.357056 0
31.559952 -46.059719 60.623001 0
23.227165 -41.622215 60.647873 0
20.100069 -38.413517 61.425823 0
17.703918 -25.858938 67.869064 0
17.324827 2.846727 63.963757 0
15.245877 14.559121 62.235001 0
14.972070 16.637976 61.883804 0
14.386889 28.582144 54.849308 0
11.171505 37.632511 49.414555 0
12.582108 46.730286 41.968323 0
12.659165 50.247307 36.386211 0
12.958542 51.889507 33.552052 0
13.332862 53.859814 30.727383 0
14.661221 59.625645 17.455996 0
18.174715 57.710796 1.872892 0
19.169325 56.558895 -0.847405 0
19.020399 56.920300 -3.449130 0
27.151470 36.011127 -7.374647 0
26.914173 15.202122 -7.951209 0
36.344193 -1.191425 -12.501446 0
40.065952 6.405272 -18.170465 0
41.481136 17.752048 -20.870056 0
46.367668 0.422695 -30.222353 0
46.414219 -2.650750 -29.370424 0
52.568909 -13.593610 -30.614342 0
54.263824 -20.046986 -27.455235 0
55.685638 -45.998943 -16.246468 0
55.441212 -53.545784 -9.346541 0
53.962837 -56.272430 -5.693326 0
51.829700 -57.859283 -3.859381 0
44.016258 -63.955521 5.489933 0
42.589298 -68.225143 21.765984 0
43.503384 -69.238083 25.365253 0
42.352783 -69.848396 29.429077 0
38.400291 -65.981117 43.870544 0
28.341858 -55.849712 48.734039 0
29.896128 -53.466515 52.251961 0
26.273487 -43.062992 59.784153 0
15.381355 -30.019566 57.930824 0
18.625320 -24.874580 69.799454 0
16.184633 -17.419846 67.550430 0
16.486166 -15.765541 64.107414 0
16.404692 -13.808288 63.058807 0
17.866032 -7.186683 64.284576 0
14.900218 54.437294 26.360661 0
17.723957 60.871899 12.694818 0
18.369606 60.488918 10.747772 0
24.153124 54.807224 -5.466032 0
24.578470 52.828335 -7.792000 0
26.013166 39.878124 -7.886425 0
32.780609 24.014812 -11.954818 0
31.330391 11.117885 -7.292521 0
41.173500 14.033827 -24.764328 0
45.313862 9.158335 -29.571779 0
46.652576 5.557640 -30.820198 0
48.368103 -4.187871 -28.606186 0
49.288731 -6.860493 -28.414949 0
51.212807 -10.454350 -29.360258 0
53.211327 -17.506008 -27.369503 0
54.030598 -22.221165 -25.567448 0
54.972576 -33.478832 -18.329424 0
55.193424 -49.124302 -13.759343 0
47.949013 -60.654202 1.408084 0
47.293682 -62.227947 3.179516 0
42.240692 -65.714592 15.721269 0
41.069695 -65.389038 18.343508 0
41.684143 -68.319733 33.718925 0
40.975800 -66.047928 39.926205 0
28.888931 -54.898991 51.057884 0
32.323563 -48.663887 57.050320 0
17.045212 -32.242771 61.024925 0
19.923479 -18.956413 70.062439 0
17.533148 -18.200979 69.210381 0
15.761515 18.609612 59.551567 0
15.262666 23.489845 57.255039 0
15.701939 21.271976 57.618610 0
13.499911 35.609474 49.365986 0
15.107720 57.716621 22.079277 0
17.978207 59.991268 16.415949 0
18.678726 58.861073 8.152740 0
25.341896 48.394077 -7.761042 0
31.365992 28.106033 -7.966587 0
32.059486 25.818752 -10.021919 0
40.339020 0.666206 -17.690039 0
42.138607 17.261469 -18.444086 0
42.430454 16.020622 -22.130516 0
48.211773 7.329691 -28.163761 0
47.205208 3.560742 -30.163797 0
51.925148 -12.598083 -26.998079 0
52.826519 -15.048214 -28.316471 0
54.710747 -24.449434 -23.515455 0
55.628925 -28.540110 -20.880859 0
55.318882 -31.352667 -21.355824 0
55.983093 -42.428120 -16.559103 0
55.557137 -50.888714 -10.758641 0
46.091297 -63.529457 5.713356 0
43.658215 -68.417656 28.586227 0
42.876560 -67.391190 31.047424 0
38.307392 -63.578926 45.073757 0
30.713320 -50.321259 53.542175 0
30.042547 -44.530140 60.281551 0
25.330112 -41.798832 58.476078 0
21.392870 -33.473324 70.463165 0
20.847181 -30.181580 68.536591 0
18.839352 -26.299623 65.682083 0
20.532173 -23.741165 70.102432 0
17.018967 -17.207478 65.678238 0
17.919615 -9.138025 62.582634 0
18.198776 7.453046 62.041157 0
13.274392 41.229416 46.537872 0
14.521730 47.358433 40.698650 0
14.765132 49.281242 37.036510 0
15.335600 56.873402 23.985100 0
16.614632 58.462704 20.397860 0
18.407141 59.465000 18.442812 0
19.314947 56.801399 4.290968 0
21.450956 55.714939 -0.732998 0
22.401899 55.545101 -3.823780 0
26.294456 51.402702 -7.672022 0
29.244251 40.151783 -7.126958 0
30.186270 30.520742 -6.810754 0
35.106197 22.345816 -12.148689 0
33.665535 9.284868 -6.764298 0
42.546963 13.048819 -23.478647 0
42.395096 10.671100 -24.277847 0
43.288292 8.214403 -24.924610 0
43.178001 9.093690 -27.611799 0
48.254581 1.714306 -29.413082 0
49.427505 0.153655 -28.777794 0
50.750938 -9.761156 -27.243851 0
53.170609 -19.851206 -24.538973 0
55.308559 -26.733253 -22.543930 0
56.954384 -36.504494 -16.336901 0
55.203983 -43.960758 -14.523897 0
45.069279 -64.070259 9.339427 0
42.608524 -64.221649 14.176832 0
36.718189 -61.565704 46.253090 0
34.125618 -57.612747 46.480865 0
22.481430 -31.086567 70.613182 0
19.905260 -30.465586 66.731575 0
17.296734 -31.971741 58.525715 0
21.487453 -25.104410 67.461800 0
18.732225 -0.813854 63.099377 0
15.802724 13.582383 59.986862 0
15.917348 24.414770 54.800293 0
16.025410 26.912743 53.825199 0
14.627408 38.392750 47.921471 0
14.225295 43.123535 43.818027 0
15.607191 45.870079 41.969135 0
15.239306 50.070457 34.347145 0
16.061899 52.408768 29.862881 0
18.285538 58.080963 23.723055 0
19.168600 59.133102 12.873350 0
20.202665 55.098515 8.076395 0
20.822332 55.661236 2.332477 0
27.028458 45.073101 -7.183195 0
34.609245 24.910717 -10.376105 0
35.513744 1.709019 -8.676789 0
42.626572 15.157918 -15.922765 0
44.334991 13.728327 -21.579464 0
52.766914 -17.740046 -25.057878 0
56.252457 -39.777412 -15.719034 0
55.144791 -44.288406 -12.367154 0
55.239601 -47.822159 -12.027580 0
55.327549 -53.148952 -4.851191 0
52.965084 -55.267704 -1.398002 0
50.365368 -61.153500 2.628031 0
49.660957 -62.173763 4.420999 0
47.835026 -62.647503 8.901099 0
43.892738 -63.059994 12.116303 0
42.793484 -65.860664 36.592525 0
31.935349 -57.721474 47.170570 0
30.156761 -55.499420 46.118309 0
30.100832 -52.084118 50.707039 0
32.497925 -44.944893 58.613365 0
28.973152 -43.109100 59.184864 0
22.317289 -36.897285 63.390633 0
22.372997 -36.095722 65.423164 0
22.653606 -34.875332 68.174599 0
17.172691 -28.196482 58.742908 0
19.425369 -26.744534 62.836475 0
21.084753 -21.444386 70.794991 0
18.631203 1.202962 62.571976 0
18.746881 4.136258 61.007477 0
14.432769 32.354439 49.917526 0
16.357670 47.788414 39.082817 0
16.836636 49.990158 32.411919 0
19.581533 57.336678 10.193870 0
24.098629 55.070526 -1.818421 0
26.886198 53.959904 -5.964154 0
28.958879 34.675938 -7.074415 0
30.762606 32.512173 -6.864822 0
35.822285 19.824228 -11.844525 0
29.558119 13.360507 -6.393268 0
37.083244 -2.577416 -15.155326 0
41.928165 2.576522 -16.650745 0
42.588528 12.942097 -14.842233 0
44.987991 16.235952 -19.025728 0
49.843010 3.160121 -27.819788 0
51.032951 -2.458488 -27.894455 0
50.602043 -4.636065 -27.748371 0
52.583866 -13.906770 -24.747774 0
54.301128 -22.052275 -22.963043 0
55.712231 -50.613300 -7.552069 0
55.163177 -53.519028 -2.887606 0
45.804832 -61.287117 10.851057 0
43.544346 -65.743324 24.255388 0
43.799824 -67.443336 26.616951 0
31.006992 -43.195045 58.075211 0
20.660065 -30.500811 64.273796 0
19.049555 -27.217421 60.730206 0
16.222679 18.878681 57.152470 0
15.909837 30.974817 49.321068 0
17.957850 52.531647 29.009150 0
17.997011 55.710175 25.921316 0
19.697567 58.634243 15.265756 0
20.309725 56.079533 11.744344 0
21.398664 53.514301 6.401426 0
28.741699 49.604603 -7.298187 0
29.432949 37.327751 -7.269025 0
33.096092 30.939903 -7.020792 0
34.422016 26.895458 -8.889255 0
30.655500 18.335400 -9.520690 0
27.046301 18.102324 -5.642594 0
33.101219 11.404593 -5.687255 0
42.448883 4.781315 -15.865460 0
44.096085 10.369151 -22.473574 0
51.295280 -0.246528 -27.415390 0
51.697578 -9.073401 -25.361221 0
51.276749 -7.106161 -26.552853 0
56.315910 -23.533575 -21.336649 0
56.560020 -40.652359 -13.943069 0
55.541008 -46.197311 -9.789519 0
52.633194 -57.366547 2.122887 0
43.915855 -65.555756 29.185862 0
36.103954 -59.674286 46.494854 0
30.188425 -51.200165 48.092438 0
31.009460 -48.991814 51.486874 0
22.739750 -37.906574 60.760319 0
19.332928 -31.270527 61.161430 0
17.458626 -31.050438 56.670986 0
17.874504 -15.776649 62.092289 0
18.440578 -7.075361 61.338085 0
18.493809 -5.026850 61.896202 0
18.434204 8.525953 59.559566 0
16.778395 11.812389 58.180153 0
15.886599 15.739902 57.965370 0
16.177301 28.842216 51.432625 0
16.379679 34.326591 47.822151 0
14.992882 40.716713 44.795025 0
16.751638 48.914234 35.581055 0
19.007887 53.566837 27.524035 0
20.343801 58.842373 20.089600 0
21.361759 58.237591 18.242178 0
21.978201 54.443802 3.742930 0
24.286306 54.761890 1.405738 0
28.781923 52.447258 -6.672349 0
29.382561 47.203568 -7.242949 0
31.056995 35.874855 -7.523981 0
34.539066 18.708530 -10.140252 0
29.401705 19.208364 -7.240032 0
28.404783 15.310895 -5.075424 0
42.307117 9.795827 -15.243123 0
44.366253 16.184595 -16.228804 0
46.292919 6.611113 -25.117693 0
52.635944 -4.134738 -26.363485 0
54.617390 -20.001644 -22.715788 0
56.730968 -29.948469 -16.696470 0
57.332790 -32.871700 -16.256855 0
49.890297 -60.132862 8.603526 0
41.853436 -60.333427 13.581894 0
40.553406 -61.422493 16.376083 0
42.256989 -64.734352 21.524488 0
45.351013 -64.131554 33.662361 0
31.813231 -55.376854 45.003742 0
29.827963 -52.959461 45.636345 0
32.775795 -46.992592 54.090450 0
23.978424 -39.933113 57.216248 0
23.606842 -33.302631 69.723755 0
22.323320 -19.843353 70.123100 0
18.197903 -12.900313 59.279587 0
19.339376 -3.052814 60.880630 0
17.172590 44.251476 41.971703 0
16.478176 41.525909 42.913692 0
20.218349 56.664135 25.150339 0
21.632111 57.451603 23.785606 0
20.741652 56.330910 14.196965 0
26.642700 54.792400 -2.297200 0
37.665001 21.861576 -10.562340 0
50.478603 3.153076 -25.594019 0
51.563160 1.046924 -25.542820 0
53.006626 -10.533512 -23.701580 0
56.435577 -25.374914 -19.632551 0
56.756466 -27.908957 -17.028076 0
56.457310 -49.207626 -6.049828 0
51.072304 -59.943951 4.607386 0
41.490429 -62.713619 20.051376 0
44.119026 -65.607071 32.949013 0
42.159473 -64.160110 41.233189 0
40.974430 -62.628239 43.133362 0
37.400349 -58.210571 45.745533 0
27.357103 -41.049416 55.862835 0
17.815268 -28.911570 56.481651 0
21.487022 -25.761711 64.770683 0
22.170406 -18.508547 68.216934 0
19.081690 -17.244322 64.197052 0
20.150248 -0.634310 60.330734 0
16.095703 13.832301 57.303894 0
16.447451 14.945237 55.318886 0
17.140371 18.076784 54.098186 0
16.910427 23.792913 52.836586 0
18.303518 28.881304 48.036644 0
17.318586 38.533344 42.995712 0
18.578184 44.830284 40.307610 0
19.111696 46.878098 36.314117 0
18.048498 46.818722 38.418968 0
22.827497 57.423374 21.447571 0
21.996391 56.143692 16.367247 0
21.118673 52.775909 9.116035 0
22.994663 52.497070 5.249479 0
29.149113 55.060638 -2.062360 0
29.610338 54.133259 -4.872027 0
31.421635 50.618225 -6.548008 0
31.105915 45.586700 -7.407792 0
31.274200 37.845798 -7.850700 0
33.026562 33.708652 -7.276104 0
37.303963 24.550842 -9.958815 0
36.798203 19.524004 -10.066904 0
31.480106 13.335097 -4.676352 0
38.880287 -2.509418 -16.552113 0
46.367798 14.363379 -18.854519 0
49.123749 4.887677 -25.507238 0
55.610462 -16.241892 -22.424965 0
58.663681 -34.824100 -14.770428 0
58.210564 -39.090332 -11.515423 0
57.136288 -41.570564 -10.701347 0
58.733101 -43.499527 -9.061814 0
58.097794 -50.472687 -3.520552 0
55.442459 -53.476578 0.278633 0
44.786831 -62.904613 24.334600 0
44.542034 -64.099709 26.661129 0
43.618145 -64.160347 39.659210 0
40.129330 -60.760540 44.273029 0
39.077778 -59.173683 45.144321 0
32.946785 -44.828461 54.973682 0
23.216335 -29.843983 67.244865 0
23.821682 -22.558491 69.192032 0
18.778751 6.252853 59.283897 0
18.036135 9.803233 57.373985 0
17.227776 19.957096 52.850983 0
23.367979 56.357868 18.697376 0
21.400980 53.066956 12.711930 0
32.975491 40.022701 -8.667701 0
33.277073 36.117203 -8.209228 0
34.835400 29.011200 -7.851610 0
37.070633 27.167986 -8.687973 0
33.001720 19.024136 -8.460738 0
45.551830 11.051307 -20.668900 0
45.522575 7.271613 -22.207975 0
53.152939 -1.447693 -24.491714 0
53.726574 -7.583237 -23.630934 0
57.527481 -19.593632 -21.085279 0
59.953880 -32.545818 -15.158845 0
59.247402 -36.572815 -12.607878 0
56.677795 -45.619133 -7.962323 0
47.236324 -59.092102 11.399682 0
44.176899 -61.775333 22.374033 0
45.394382 -63.660336 28.539070 0
45.562023 -63.698711 30.628845 0
30.602400 -42.534340 55.685604 0
21.417599 -30.582939 61.656708 0
19.836748 -27.330217 57.945938 0
21.776609 -26.329052 60.291283 0
22.498598 -25.654177 63.030319 0
21.293259 -17.562943 65.218781 0
19.513134 -14.850105 58.274399 0
18.903809 -8.064701 59.534050 0
17.094179 12.229111 55.797482 0
18.009783 26.074240 50.905628 0
18.593351 27.063684 49.111443 0
19.120367 42.133297 41.756035 0
19.850084 47.869183 32.471573 0
20.230618 50.835430 29.600960 0
22.702492 51.316273 7.055643 0
25.074200 52.772301 4.024380 0
27.642311 53.801174 1.682491 0
31.401819 52.920227 -5.253504 0
33.434513 48.484573 -7.325905 0
33.334915 43.773506 -8.190219 0
35.003918 10.826365 -4.776668 0
35.674461 7.797544 -4.771180 0
36.037800 1.548149 -6.495081 0
43.884506 11.370883 -13.193847 0
46.634174 15.329281 -16.152458 0
49.061710 3.533893 -23.597502 0
54.280422 -4.528374 -24.045313 0
54.184654 -13.572679 -22.925463 0
58.406902 -22.950378 -20.372334 0
59.971481 -29.962122 -15.369163 0
59.319435 -40.221867 -9.615079 0
60.420517 -42.526554 -8.602106 0
58.605877 -44.796745 -5.444739 0
56.968983 -51.588623 -0.892730 0
54.200710 -54.061325 2.085932 0
50.218559 -57.315994 7.491275 0
41.852463 -59.308174 16.245203 0
42.502956 -59.546165 18.968174 0
46.484013 -63.032513 37.183685 0
43.631451 -62.140892 40.819771 0
42.006535 -60.356312 42.887875 0
41.124920 -57.904400 43.949371 0
34.217400 -55.812790 44.011818 0
31.631765 -53.586132 43.323578 0
31.077688 -48.362293 48.235561 0
32.883369 -46.389977 51.018349 0
24.964857 -36.202827 64.197433 0
25.622496 -34.816929 66.781151 0
25.973148 -31.143787 69.584557 0
23.815634 -24.418381 66.133553 0
20.849155 -16.679173 62.464966 0
19.071278 -5.333003 59.366035 0
17.332602 21.839273 52.087418 0
21.882263 52.572174 26.216124 0
23.053104 54.327991 24.199104 0
23.675688 55.723957 22.333527 0
24.419971 55.141750 20.321655 0
22.021492 50.934101 10.349895 0
24.993847 51.117447 6.156571 0
35.392399 32.614223 -7.472883 0
35.967941 29.549740 -7.781489 0
35.588001 4.485908 -5.873541 0
46.143990 13.963261 -13.019228 0
47.130756 12.148893 -18.429239 0
46.814854 8.505136 -19.681339 0
47.978245 4.471713 -22.148096 0
51.211533 1.061450 -22.434153 0
55.629921 -3.326310 -21.275003 0
59.448063 -19.738972 -20.068718 0
58.996727 -25.835056 -17.053349 0
59.143795 -27.922338 -15.818989 0
60.019909 -37.571838 -9.949181 0
58.741447 -47.171131 -3.574576 0
58.655323 -49.806587 -1.654803 0
51.482109 -55.013794 5.222836 0
49.377476 -57.601757 9.329839 0
44.872719 -58.050964 14.453817 0
38.261791 -56.977093 44.374123 0
36.377693 -56.324497 43.747730 0
24.820356 -37.391960 60.961136 0
21.098211 -30.724957 58.027313 0
25.465870 -20.328213 69.308060 0
18.996189 4.037906 58.140511 0
19.311558 7.426106 56.202972 0
17.704592 12.671574 53.332218 0
18.955524 16.495493 51.140068 0
17.900400 35.108288 44.268089 0
20.441000 42.998680 38.520298 0
24.230207 53.137127 17.849033 0
22.478243 50.538261 13.908076 0
26.881773 51.299980 5.506253 0
30.776859 52.911198 -0.084505 0
32.562801 52.933239 -3.599474 0
33.609734 51.595325 -5.406987 0
35.712906 37.493862 -9.234549 0
39.327179 23.643602 -9.302440 0
35.480816 19.288197 -8.353812 0
