#!ascii version written be Caret
6110 12216
1252 1374 1428 0
1252 1428 1401 0
1352 1351 1429 0
1351 1402 1429 0
1353 1375 1430 0
1354 1353 1430 0
1354 1430 1431 0
1403 1354 1431 0
1376 1403 1432 0
1234 1320 1407 0
1357 1407 1321 0
1322 1321 1433 0
1324 1380 1434 0
1325 1435 1381 0
1281 1381 1436 0
1281 1436 1303 0
1282 1382 1408 0
1326 1185 1408 0
1261 1327 1328 0
1263 1262 1437 0
1359 1263 1437 0
1360 1359 1438 0
1187 1329 1410 0
1106 1332 1411 0
1285 1213 1439 0
1213 1412 1439 0
1285 1439 1385 0
1363 1333 1440 0
1333 1414 1440 0
1416 1334 1415 0
1364 1417 1441 0
1267 1364 1441 0
1267 1441 1442 0
1365 1267 1443 0
1336 1387 1388 0
1337 1418 1444 0
1306 1337 1444 0
1340 1290 1445 0
1290 1446 1445 0
1272 1368 1447 0
1292 1272 1448 0
1198 1392 1393 0
1294 1344 1369 0
1220 1395 1421 0
1370 1421 1422 0
1310 1422 1449 0
1310 1449 1396 0
1246 1423 1397 0
1295 1397 1450 0
1311 1295 1451 0
1311 1451 1452 0
1311 1452 1296 0
1312 1371 1398 0
1372 1398 1424 0
1247 1399 1453 0
1400 1348 1454 0
1350 1400 1426 0
1352 1429 1455 0
1375 1352 1455 0
1403 1431 1432 0
1355 1300 1456 0
1378 1405 1457 0
1324 1434 1358 0
1325 1358 1435 0
1326 1408 1458 0
1259 1326 1459 0
1259 1459 1460 0
1259 1460 1461 0
1286 1413 1414 0
1386 1363 1415 0
1363 1462 1415 0
1417 1416 1463 0
1442 1441 1464 0
1267 1442 1465 0
1267 1465 1443 0
1387 1365 1443 0
1387 1443 1388 0
1306 1444 1389 0
1339 1366 1466 0
1367 1339 1307 0
1290 1307 1446 0
1242 1291 1467 0
1343 1342 1468 0
1272 1447 1469 0
1272 1469 1448 0
1391 1292 1470 0
1392 1391 1471 0
1393 1392 1472 0
1420 1393 1472 0
1345 1473 1395 0
1346 1396 1474 0
1396 1449 1474 0
1397 1423 1475 0
1296 1452 1371 0
1398 1371 1476 0
1398 1476 1424 0
1247 1453 1313 0
1299 1477 1425 0
1373 1276 1478 0
1400 1454 1426 0
1375 1455 1430 0
1431 1430 1479 0
1431 1479 1480 0
1432 1431 1480 0
1376 1432 1481 0
1376 1481 1404 0
1300 1377 1482 0
1300 1482 1456 0
1356 1355 1483 0
1356 1483 1405 0
1378 1457 1484 0
1406 1378 1484 0
1321 1407 1485 0
1321 1485 1486 0
1326 1458 1459 0
1327 1259 1461 0
1265 1212 1487 0
1412 1265 1487 0
1385 1439 1488 0
1439 1412 1488 0
1363 1440 1462 0
1416 1415 1463 0
1441 1417 1489 0
1417 1463 1489 0
1441 1489 1464 0
1442 1464 1465 0
1388 1443 1490 0
1366 1338 1491 0
1338 1389 1491 0
1307 1339 1492 0
1340 1445 1390 0
1341 1390 1493 0
1341 1493 1419 0
1368 1494 1447 0
1391 1470 1471 0
1344 1394 1495 0
1345 1369 1473 0
1450 1397 1475 0
1295 1450 1451 0
1399 1424 1496 0
1399 1496 1453 0
1347 1477 1299 0
1276 1425 1478 0
1373 1478 1497 0
1373 1497 1498 0
1373 1498 1348 0
1426 1454 1499 0
1427 1426 1500 0
1428 1427 1501 0
1427 1500 1501 0
1316 1401 1502 0
1317 1316 1502 0
1317 1502 1503 0
1402 1317 1503 0
1430 1455 1504 0
1377 1404 1482 0
1483 1355 1505 0
1407 1320 1506 0
1320 1406 1506 0
1321 1486 1433 0
1323 1322 1507 0
1303 1436 1508 0
1303 1508 1382 0
1459 1458 1509 0
1510 1327 1461 0
1327 1510 1328 0
1262 1328 1437 0
1360 1438 1511 0
1360 1511 1409 0
1411 1332 1512 0
1332 1362 1512 0
1487 1212 1513 0
1212 1411 1513 0
1440 1414 1514 0
1462 1440 1515 0
1440 1514 1515 0
1415 1462 1516 0
1415 1516 1463 0
1443 1465 1517 0
1366 1491 1466 0
1339 1466 1492 0
1307 1492 1446 0
1291 1419 1518 0
1291 1518 1467 0
1242 1467 1519 0
1292 1448 1469 0
1292 1469 1520 0
1292 1520 1470 0
1392 1471 1472 0
1394 1420 1521 0
1394 1521 1495 0
1369 1344 1522 0
1473 1369 1523 0
1422 1421 1524 0
1449 1422 1525 0
1423 1346 1475 0
1371 1452 1476 0
1313 1453 1526 0
1347 1527 1477 0
1478 1425 1528 0
1478 1528 1497 0
1426 1499 1500 0
1401 1428 1529 0
1428 1501 1529 0
1455 1429 1530 0
1504 1455 1530 0
1430 1504 1531 0
1504 1530 1531 0
1430 1531 1532 0
1479 1430 1532 0
1355 1456 1505 0
1405 1483 1457 0
1407 1506 1485 0
1379 1323 1533 0
1380 1302 1534 0
1459 1509 1460 0
1359 1437 1535 0
1438 1359 1535 0
1385 1488 1536 0
1463 1516 1537 0
1463 1537 1489 0
1465 1464 1538 0
1446 1492 1539 0
1242 1519 1342 0
1368 1343 1494 0
1343 1468 1494 0
1470 1520 1471 0
1420 1472 1540 0
1344 1495 1522 0
1369 1522 1523 0
1395 1473 1541 0
1421 1395 1541 0
1422 1524 1525 0
1449 1525 1474 0
1348 1498 1497 0
1348 1497 1542 0
1348 1542 1454 0
1502 1401 1529 0
1502 1529 1503 0
1429 1402 1543 0
1402 1503 1543 0
1429 1543 1544 0
1484 1457 1545 0
1322 1433 1546 0
1322 1546 1507 0
1302 1379 1533 0
1434 1380 1534 0
1358 1434 1547 0
1358 1547 1548 0
1435 1358 1548 0
1381 1435 1549 0
1436 1550 1508 0
1458 1408 1551 0
1509 1458 1552 0
1438 1535 1511 0
1383 1409 1553 0
1383 1553 1329 0
1410 1329 1554 0
1361 1410 1554 0
1362 1331 1555 0
1411 1512 1556 0
1513 1411 1556 0
1412 1487 1557 0
1488 1412 1558 0
1412 1557 1558 0
1413 1385 1559 0
1385 1536 1559 0
1414 1413 1560 0
1414 1560 1514 0
1462 1515 1561 0
1465 1538 1517 0
1388 1490 1562 0
1418 1388 1562 0
1444 1418 1563 0
1492 1466 1539 0
1390 1445 1493 0
1419 1493 1518 0
1342 1519 1468 0
1447 1494 1469 0
1420 1540 1521 0
1421 1541 1524 0
1450 1475 1564 0
1450 1564 1451 0
1424 1476 1565 0
1347 1313 1566 0
1425 1477 1567 0
1542 1497 1568 0
1454 1542 1568 0
1500 1499 1569 0
1501 1500 1570 0
1501 1570 1571 0
1529 1501 1572 0
1501 1571 1572 0
1503 1529 1573 0
1530 1429 1574 0
1429 1544 1574 0
1531 1530 1575 0
1432 1480 1481 0
1505 1456 1576 0
1457 1483 1577 0
1545 1457 1577 0
1302 1533 1534 0
1434 1534 1578 0
1434 1578 1547 0
1435 1548 1549 0
1436 1381 1579 0
1381 1549 1579 0
1458 1551 1552 0
1460 1509 1580 0
1461 1460 1581 0
1437 1582 1535 0
1384 1361 1583 0
1330 1384 1584 0
1284 1330 1585 0
1362 1555 1512 0
1513 1556 1586 0
1487 1513 1586 0
1413 1559 1560 0
1515 1514 1587 0
1515 1587 1561 0
1462 1561 1588 0
1462 1588 1516 0
1489 1537 1589 0
1490 1443 1590 0
1490 1590 1562 0
1444 1563 1591 0
1491 1592 1466 0
1446 1539 1593 0
1446 1593 1594 0
1445 1446 1595 0
1495 1521 1596 0
1522 1495 1597 0
1523 1522 1597 0
1473 1523 1598 0
1474 1525 1599 0
1475 1346 1600 0
1452 1451 1601 0
1476 1452 1602 0
1476 1602 1565 0
1453 1496 1526 0
1313 1526 1603 0
1347 1566 1527 0
1477 1604 1567 0
1425 1567 1528 0
1499 1454 1605 0
1499 1605 1569 0
1500 1569 1606 0
1500 1606 1570 0
1573 1529 1607 0
1529 1572 1607 0
1503 1573 1608 0
1543 1503 1608 0
1530 1574 1575 0
1479 1532 1609 0
1480 1479 1609 0
1404 1481 1610 0
1482 1404 1610 0
1482 1610 1611 0
1456 1482 1611 0
1483 1505 1612 0
1505 1576 1612 0
1483 1612 1577 0
1484 1545 1613 0
1406 1484 1613 0
1406 1613 1614 0
1506 1406 1614 0
1485 1506 1615 0
1506 1614 1615 0
1486 1485 1616 0
1433 1486 1617 0
1546 1433 1617 0
1323 1507 1546 0
1323 1546 1533 0
1436 1579 1550 0
1408 1382 1551 0
1509 1552 1618 0
1580 1509 1618 0
1460 1580 1581 0
1329 1553 1554 0
1361 1554 1619 0
1361 1619 1583 0
1331 1284 1585 0
1557 1487 1620 0
1536 1488 1621 0
1514 1560 1587 0
1464 1489 1622 0
1443 1517 1623 0
1443 1623 1590 0
1418 1562 1624 0
1563 1418 1624 0
1444 1591 1389 0
1539 1466 1625 0
1539 1625 1593 0
1446 1594 1595 0
1518 1493 1626 0
1467 1518 1627 0
1469 1494 1628 0
1469 1629 1520 0
1472 1630 1540 0
1523 1597 1598 0
1541 1473 1598 0
1474 1599 1346 0
1451 1564 1631 0
1452 1601 1602 0
1424 1565 1632 0
1496 1424 1632 0
1527 1566 1633 0
1454 1568 1605 0
1572 1571 1634 0
1608 1573 1607 0
1543 1608 1635 0
1543 1635 1544 0
1531 1575 1636 0
1532 1531 1636 0
1609 1532 1636 0
1481 1637 1610 0
1611 1610 1638 0
1456 1611 1576 0
1545 1577 1639 0
1485 1640 1616 0
1617 1486 1616 0
1551 1382 1641 0
1382 1508 1641 0
1510 1461 1642 0
1510 1642 1328 0
1437 1328 1643 0
1437 1643 1582 0
1511 1535 1644 0
1487 1586 1620 0
1558 1557 1621 0
1488 1558 1621 0
1561 1587 1645 0
1588 1561 1645 0
1516 1588 1646 0
1537 1516 1646 0
1538 1464 1647 0
1464 1622 1647 0
1517 1538 1623 0
1562 1590 1648 0
1563 1624 1591 0
1389 1591 1649 0
1389 1649 1650 0
1389 1650 1491 0
1493 1651 1626 0
1519 1467 1652 0
1467 1627 1652 0
1494 1653 1628 0
1469 1628 1629 0
1471 1520 1654 0
1472 1471 1630 0
1471 1655 1630 0
1541 1598 1656 0
1541 1656 1524 0
1525 1524 1657 0
1346 1599 1600 0
1564 1475 1658 0
1451 1631 1601 0
1496 1632 1659 0
1496 1659 1526 0
1313 1603 1566 0
1477 1527 1633 0
1477 1633 1604 0
1528 1567 1660 0
1528 1660 1661 0
1497 1528 1662 0
1569 1605 1663 0
1606 1569 1663 0
1570 1606 1664 0
1606 1663 1664 0
1570 1664 1665 0
1571 1570 1665 0
1571 1665 1634 0
1572 1634 1607 0
1608 1607 1635 0
1480 1609 1666 0
1481 1480 1667 0
1480 1666 1667 0
1610 1637 1668 0
1610 1668 1638 0
1611 1638 1669 0
1577 1612 1670 0
1577 1670 1639 0
1613 1545 1671 0
1614 1613 1672 0
1550 1579 1508 0
1551 1641 1673 0
1551 1673 1552 0
1642 1461 1674 0
1461 1581 1674 0
1643 1328 1675 0
1409 1511 1644 0
1583 1619 1676 0
1330 1584 1677 0
1331 1585 1678 0
1555 1331 1678 0
1512 1555 1679 0
1556 1512 1680 0
1621 1557 1620 0
1536 1621 1559 0
1537 1646 1681 0
1589 1537 1681 0
1489 1589 1622 0
1538 1647 1682 0
1623 1538 1682 0
1590 1623 1648 0
1624 1562 1683 0
1562 1648 1683 0
1594 1593 1595 0
1493 1445 1684 0
1493 1684 1651 0
1518 1626 1685 0
1518 1685 1627 0
1468 1519 1686 0
1494 1468 1687 0
1494 1687 1653 0
1520 1629 1688 0
1540 1630 1689 0
1521 1540 1689 0
1521 1689 1596 0
1599 1525 1657 0
1475 1600 1658 0
1564 1658 1631 0
1601 1631 1690 0
1602 1601 1691 0
1602 1691 1565 0
1528 1661 1662 0
1568 1497 1692 0
1497 1662 1692 0
1664 1663 1693 0
1544 1635 1694 0
1544 1694 1574 0
1575 1574 1695 0
1575 1695 1696 0
1636 1575 1696 0
1609 1636 1697 0
1481 1667 1637 0
1576 1611 1698 0
1611 1669 1698 0
1612 1576 1699 0
1545 1639 1671 0
1613 1671 1672 0
1485 1615 1640 0
1617 1616 1700 0
1617 1700 1546 0
1548 1547 1701 0
1549 1548 1701 0
1552 1673 1702 0
1552 1702 1618 0
1580 1703 1581 0
1553 1409 1704 0
1619 1554 1705 0
1619 1705 1676 0
1555 1678 1706 0
1555 1706 1679 0
1680 1512 1707 0
1586 1556 1708 0
1556 1680 1708 0
1586 1708 1709 0
1620 1586 1709 0
1621 1620 1710 0
1560 1559 1587 0
1646 1588 1711 0
1588 1645 1711 0
1589 1681 1622 0
1623 1682 1712 0
1648 1623 1713 0
1623 1712 1713 0
1649 1591 1714 0
1591 1624 1714 0
1491 1650 1592 0
1593 1625 1715 0
1445 1595 1684 0
1627 1685 1716 0
1519 1652 1686 0
1468 1686 1717 0
1520 1688 1654 0
1471 1654 1718 0
1655 1471 1718 0
1597 1495 1719 0
1495 1596 1719 0
1598 1597 1720 0
1601 1690 1691 0
1526 1659 1721 0
1603 1526 1721 0
1603 1721 1722 0
1567 1604 1723 0
1664 1693 1665 0
1574 1694 1695 0
1636 1696 1724 0
1636 1724 1697 0
1609 1697 1666 0
1699 1576 1725 0
1576 1698 1725 0
1670 1612 1726 0
1612 1699 1726 0
1672 1671 1727 0
1614 1672 1728 0
1672 1727 1728 0
1615 1614 1729 0
1578 1534 1730 0
1547 1578 1730 0
1328 1642 1675 0
1409 1644 1704 0
1554 1553 1705 0
1585 1330 1731 0
1330 1677 1731 0
1678 1585 1732 0
1512 1679 1707 0
1708 1680 1707 0
1620 1709 1710 0
1587 1733 1645 0
1681 1646 1734 0
1681 1734 1735 0
1622 1681 1735 0
1682 1647 1622 0
1648 1713 1683 0
1650 1649 1736 0
1466 1592 1737 0
1625 1466 1737 0
1595 1593 1738 0
1652 1627 1686 0
1627 1716 1686 0
1628 1653 1739 0
1629 1628 1688 0
1655 1718 1630 0
1598 1720 1740 0
1656 1598 1740 0
1524 1656 1741 0
1657 1524 1741 0
1599 1657 1742 0
1600 1599 1742 0
1631 1658 1743 0
1690 1631 1743 0
1565 1691 1744 0
1632 1565 1744 0
1603 1722 1566 0
1633 1566 1745 0
1604 1633 1723 0
1567 1723 1660 0
1660 1746 1661 0
1665 1693 1747 0
1665 1747 1748 0
1665 1748 1634 0
1694 1635 1749 0
1696 1695 1724 0
1666 1697 1750 0
1667 1666 1751 0
1666 1750 1751 0
1638 1668 1752 0
1639 1670 1753 0
1670 1726 1753 0
1671 1639 1727 0
1614 1728 1729 0
1508 1579 1754 0
1641 1508 1755 0
1673 1641 1755 0
1702 1673 1756 0
1580 1618 1703 0
1674 1581 1757 0
1584 1384 1758 0
1384 1583 1758 0
1585 1731 1732 0
1621 1710 1759 0
1559 1621 1760 0
1587 1559 1733 0
1559 1761 1733 0
1646 1711 1734 0
1622 1735 1762 0
1682 1622 1763 0
1683 1713 1764 0
1624 1683 1765 0
1649 1714 1736 0
1626 1651 1766 0
1468 1717 1687 0
1653 1687 1739 0
1654 1688 1767 0
1630 1718 1768 0
1656 1740 1741 0
1600 1769 1770 0
1600 1770 1658 0
1566 1722 1745 0
1660 1723 1746 0
1661 1771 1662 0
1605 1568 1772 0
1568 1692 1772 0
1663 1605 1773 0
1663 1774 1693 0
1607 1634 1775 0
1607 1775 1635 0
1695 1694 1776 0
1695 1776 1777 0
1724 1695 1777 0
1668 1637 1778 0
1668 1778 1752 0
1669 1638 1779 0
1669 1779 1698 0
1725 1698 1780 0
1725 1780 1699 0
1701 1547 1781 0
1549 1701 1782 0
1579 1549 1782 0
1579 1782 1783 0
1579 1783 1754 0
1618 1702 1784 0
1703 1618 1784 0
1581 1703 1757 0
1704 1644 1785 0
1553 1704 1786 0
1705 1553 1786 0
1705 1787 1676 0
1677 1584 1758 0
1678 1732 1706 0
1707 1679 1788 0
1621 1759 1760 0
1559 1760 1761 0
1645 1733 1789 0
1711 1645 1790 0
1645 1791 1790 0
1734 1711 1790 0
1735 1734 1792 0
1763 1622 1762 0
1712 1682 1793 0
1682 1763 1793 0
1713 1712 1764 0
1683 1764 1765 0
1714 1624 1765 0
1737 1592 1794 0
1625 1737 1715 0
1593 1715 1795 0
1593 1795 1738 0
1595 1738 1796 0
1738 1797 1796 0
1684 1595 1796 0
1626 1766 1685 0
1686 1716 1798 0
1688 1628 1799 0
1657 1741 1800 0
1600 1742 1769 0
1690 1743 1801 0
1691 1690 1802 0
1659 1632 1803 0
1721 1659 1803 0
1745 1722 1804 0
1746 1723 1805 0
1661 1746 1771 0
1692 1662 1806 0
1605 1772 1773 0
1663 1773 1774 0
1693 1774 1747 0
1775 1634 1807 0
1634 1748 1807 0
1635 1775 1808 0
1749 1635 1808 0
1694 1749 1809 0
1694 1809 1776 0
1637 1667 1751 0
1637 1751 1778 0
1698 1779 1780 0
1753 1726 1810 0
1726 1699 1810 0
1727 1639 1811 0
1728 1727 1812 0
1728 1812 1729 0
1534 1533 1813 0
1534 1813 1814 0
1534 1814 1730 0
1508 1754 1755 0
1673 1755 1815 0
1784 1702 1756 0
1674 1757 1816 0
1704 1785 1786 0
1705 1786 1787 0
1583 1676 1817 0
1758 1583 1817 0
1731 1677 1818 0
1706 1732 1819 0
1679 1706 1788 0
1707 1788 1820 0
1709 1708 1821 0
1710 1709 1759 0
1761 1760 1822 0
1791 1645 1789 0
1790 1791 1823 0
1791 1789 1823 0
1734 1790 1792 0
1762 1735 1824 0
1735 1792 1824 0
1712 1793 1764 0
1714 1765 1736 0
1650 1736 1592 0
1738 1795 1797 0
1684 1796 1651 0
1766 1651 1825 0
1628 1739 1799 0
1718 1654 1826 0
1654 1767 1826 0
1630 1768 1689 0
1597 1719 1827 0
1597 1827 1720 0
1742 1657 1828 0
1657 1800 1828 0
1743 1658 1770 0
1743 1770 1829 0
1691 1802 1830 0
1691 1830 1744 0
1721 1803 1831 0
1721 1831 1722 0
1723 1633 1832 0
1633 1833 1832 0
1772 1692 1806 0
1772 1806 1834 0
1773 1772 1834 0
1747 1774 1835 0
1775 1807 1808 0
1749 1808 1836 0
1777 1776 1837 0
1777 1837 1724 0
1750 1697 1838 0
1697 1724 1838 0
1778 1751 1839 0
1752 1778 1840 0
1779 1638 1841 0
1638 1752 1841 0
1699 1780 1842 0
1699 1842 1843 0
1699 1843 1810 0
1727 1811 1812 0
1547 1730 1781 0
1757 1703 1844 0
1816 1757 1844 0
1677 1758 1818 0
1732 1731 1845 0
1731 1818 1845 0
1706 1819 1788 0
1846 1707 1820 0
1707 1846 1847 0
1708 1707 1847 0
1708 1847 1821 0
1848 1709 1821 0
1759 1709 1848 0
1789 1733 1849 0
1733 1761 1849 0
1763 1762 1850 0
1763 1850 1793 0
1765 1764 1851 0
1736 1765 1852 0
1592 1736 1853 0
1592 1853 1794 0
1715 1737 1854 0
1651 1796 1825 0
1685 1766 1855 0
1685 1855 1716 0
1739 1687 1856 0
1767 1688 1799 0
1718 1826 1768 0
1596 1689 1857 0
1827 1719 1858 0
1740 1720 1859 0
1720 1827 1859 0
1800 1741 1860 0
1769 1742 1861 0
1743 1829 1801 0
1802 1690 1801 0
1744 1830 1862 0
1632 1744 1863 0
1803 1632 1864 0
1723 1832 1805 0
1746 1805 1865 0
1771 1746 1866 0
1662 1771 1867 0
1771 1866 1867 0
1806 1662 1867 0
1773 1834 1868 0
1774 1773 1869 0
1774 1869 1835 0
1748 1747 1870 0
1807 1748 1871 0
1748 1870 1871 0
1809 1749 1872 0
1749 1836 1872 0
1809 1872 1776 0
1724 1837 1873 0
1751 1750 1874 0
1751 1874 1839 0
1778 1839 1840 0
1639 1753 1875 0
1639 1875 1811 0
1812 1811 1876 0
1616 1640 1877 0
1616 1877 1700 0
1546 1700 1878 0
1701 1781 1879 0
1782 1701 1879 0
1754 1783 1880 0
1755 1754 1881 0
1673 1815 1756 0
1703 1784 1844 0
1644 1535 1882 0
1785 1644 1882 0
1732 1845 1819 0
1760 1759 1883 0
1822 1760 1883 0
1761 1822 1884 0
1849 1761 1884 0
1850 1762 1885 0
1762 1824 1885 0
1717 1686 1886 0
1687 1717 1856 0
1739 1856 1887 0
1739 1887 1799 0
1767 1888 1826 0
1689 1768 1857 0
1741 1740 1889 0
1742 1828 1861 0
1770 1769 1890 0
1744 1862 1863 0
1632 1863 1864 0
1831 1803 1891 0
1722 1831 1892 0
1633 1745 1893 0
1633 1893 1833 0
1746 1865 1866 0
1773 1868 1869 0
1808 1807 1871 0
1808 1871 1894 0
1836 1808 1894 0
1776 1872 1895 0
1837 1776 1896 0
1724 1873 1897 0
1838 1724 1897 0
1839 1874 1898 0
1779 1841 1899 0
1780 1779 1900 0
1779 1899 1900 0
1842 1780 1900 0
1753 1810 1875 0
1876 1811 1901 0
1811 1875 1901 0
1815 1755 1881 0
1785 1882 1902 0
1786 1785 1902 0
1818 1758 1903 0
1818 1903 1845 0
1792 1790 1904 0
1790 1823 1904 0
1793 1850 1905 0
1764 1793 1906 0
1764 1906 1851 0
1852 1765 1907 0
1736 1852 1908 0
1736 1908 1853 0
1737 1794 1854 0
1715 1854 1795 0
1796 1797 1909 0
1796 1909 1910 0
1796 1910 1825 0
1766 1825 1911 0
1855 1766 1912 0
1766 1911 1912 0
1716 1855 1913 0
1716 1913 1798 0
1686 1798 1914 0
1686 1914 1886 0
1767 1799 1915 0
1767 1915 1888 0
1596 1857 1916 0
1859 1827 1917 0
1740 1859 1917 0
1740 1917 1918 0
1889 1740 1918 0
1860 1741 1919 0
1800 1860 1828 0
1829 1770 1920 0
1802 1801 1830 0
1863 1862 1921 0
1863 1921 1864 0
1803 1864 1891 0
1722 1892 1804 0
1745 1804 1893 0
1833 1893 1922 0
1832 1833 1923 0
1834 1806 1867 0
1747 1835 1924 0
1870 1747 1925 0
1747 1924 1925 0
1872 1836 1895 0
1776 1895 1926 0
1776 1926 1896 0
1837 1896 1926 0
1873 1837 1927 0
1750 1838 1928 0
1874 1750 1898 0
1839 1898 1840 0
1752 1840 1841 0
1842 1900 1929 0
1843 1842 1930 0
1810 1843 1930 0
1901 1875 1931 0
1729 1812 1932 0
1729 1932 1615 0
1615 1933 1640 0
1878 1700 1877 0
1813 1533 1934 0
1533 1546 1934 0
1783 1782 1935 0
1782 1879 1935 0
1756 1815 1936 0
1882 1535 1937 0
1787 1786 1938 0
1676 1787 1817 0
1788 1819 1939 0
1821 1847 1848 0
1883 1759 1940 0
1759 1848 1940 0
1822 1883 1940 0
1884 1822 1940 0
1789 1849 1941 0
1789 1941 1942 0
1823 1789 1942 0
1823 1942 1943 0
1904 1823 1943 0
1824 1792 1904 0
1793 1905 1906 0
1765 1851 1907 0
1855 1912 1913 0
1717 1886 1944 0
1856 1717 1945 0
1799 1887 1946 0
1857 1768 1947 0
1596 1916 1719 0
1719 1948 1858 0
1917 1827 1858 0
1889 1918 1949 0
1861 1828 1950 0
1769 1861 1890 0
1861 1950 1890 0
1770 1890 1920 0
1829 1920 1801 0
1830 1801 1951 0
1862 1830 1952 0
1831 1891 1892 0
1833 1922 1923 0
1805 1832 1953 0
1834 1867 1954 0
1868 1834 1955 0
1834 1954 1955 0
1869 1868 1955 0
1924 1835 1956 0
1836 1894 1957 0
1836 1957 1895 0
1837 1926 1927 0
1897 1873 1958 0
1873 1927 1958 0
1897 1958 1959 0
1838 1897 1928 0
1750 1928 1898 0
1840 1898 1960 0
1930 1842 1961 0
1842 1929 1961 0
1546 1878 1934 0
1814 1813 1962 0
1814 1962 1730 0
1783 1935 1880 0
1815 1881 1936 0
1784 1756 1844 0
1582 1643 1963 0
1535 1582 1963 0
1535 1963 1937 0
1882 1937 1964 0
1902 1882 1964 0
1817 1787 1965 0
1819 1845 1966 0
1845 1967 1966 0
1820 1788 1968 0
1788 1939 1968 0
1846 1820 1968 0
1884 1940 1969 0
1849 1970 1941 0
1824 1904 1885 0
1905 1850 1971 0
1852 1907 1908 0
1717 1944 1945 0
1915 1799 1972 0
1915 1972 1888 0
1768 1826 1947 0
1916 1857 1973 0
1719 1916 1973 0
1719 1973 1948 0
1917 1974 1918 0
1741 1889 1919 0
1828 1860 1975 0
1828 1975 1950 0
1830 1951 1952 0
1864 1976 1891 0
1804 1892 1977 0
1893 1804 1977 0
1832 1923 1953 0
1805 1953 1978 0
1865 1805 1978 0
1867 1866 1979 0
1867 1979 1980 0
1954 1867 1980 0
1835 1869 1956 0
1924 1956 1925 0
1870 1925 1981 0
1871 1870 1981 0
1926 1895 1982 0
1897 1959 1928 0
1898 1928 1983 0
1899 1841 1900 0
1875 1810 1984 0
1810 1930 1984 0
1931 1875 1985 0
1875 1984 1985 0
1901 1931 1986 0
1931 1985 1986 0
1901 1986 1876 0
1933 1615 1932 0
1640 1933 1877 0
1880 1935 1987 0
1754 1880 1988 0
1756 1936 1989 0
1786 1902 1938 0
1787 1938 1990 0
1758 1817 1991 0
1903 1758 1991 0
1845 1903 1967 0
1939 1819 1966 0
1846 1968 1992 0
1847 1846 1992 0
1969 1940 1993 0
1849 1884 1969 0
1849 1969 1970 0
1941 1970 1942 0
1885 1904 1994 0
1850 1885 1995 0
1885 1994 1995 0
1850 1995 1971 0
1851 1906 1996 0
1907 1851 1997 0
1851 1996 1997 0
1908 1907 1998 0
1825 1910 1999 0
1825 1999 1911 0
1798 1913 1914 0
1886 1914 2000 0
1886 2000 1944 0
1856 1945 2001 0
1887 1856 2001 0
1799 1946 1972 0
1826 1888 2002 0
1826 2002 2003 0
1826 2003 1947 0
1889 1949 2004 0
1919 1889 2004 0
1860 1919 2005 0
1975 1860 2005 0
1890 1950 2006 0
1801 2007 2008 0
1951 1801 2008 0
1862 2009 1921 0
1866 1865 2010 0
1869 1955 1956 0
1925 1956 2011 0
1871 1981 2012 0
1894 1871 2012 0
1894 2012 1957 0
1895 1957 1982 0
1928 1959 2013 0
1900 1841 2014 0
1961 1929 2015 0
1929 1900 2015 0
1930 1961 2016 0
1877 1933 2017 0
1878 1877 2018 0
1880 2019 1988 0
1754 1988 2020 0
1881 1754 2020 0
1936 1881 2021 0
1756 1989 2022 0
1756 2022 2023 0
1844 1756 2023 0
1675 1642 2024 0
1963 1643 2025 0
1937 1963 2026 0
1965 1787 1990 0
1903 1991 1967 0
1939 2027 1968 0
1940 1848 2028 0
1940 2028 1993 0
1904 1943 2029 0
1904 2029 1994 0
1971 1995 2030 0
1906 1905 1971 0
1906 1971 1996 0
1907 1997 2031 0
1907 2031 1998 0
1908 1998 2032 0
1853 1908 2032 0
1795 1854 2033 0
1797 1795 2034 0
1795 2033 2034 0
1910 1909 2035 0
1910 2035 1999 0
1887 2001 2036 0
1887 2036 1946 0
1888 1972 2002 0
1857 2037 1973 0
1917 1858 2038 0
1950 1975 2039 0
2006 1950 2040 0
1890 2006 2041 0
1920 1890 2041 0
1920 2041 2042 0
1801 1920 2007 0
1952 1951 2043 0
1862 1952 2009 0
1921 2009 2044 0
1864 1921 2044 0
1864 2044 1976 0
1977 1892 2045 0
1953 1923 2046 0
1978 1953 2046 0
1979 1866 2047 0
1979 2047 1980 0
1954 1980 2048 0
1956 1955 2049 0
1955 2050 2049 0
1981 1925 2051 0
1925 2011 2051 0
2012 1981 2052 0
1927 1926 2053 0
1959 1958 2013 0
1983 1928 2054 0
1928 2013 2054 0
1960 1898 2055 0
1898 1983 2055 0
1840 1960 2056 0
1841 1840 2057 0
1840 2056 2057 0
1841 2057 2058 0
1900 2014 2059 0
2015 1900 2060 0
1900 2059 2060 0
1961 2015 2016 0
1984 1930 2061 0
1930 2016 2061 0
1985 1984 2061 0
1812 1876 2062 0
1879 1781 2063 0
1879 2063 2064 0
1935 1879 2064 0
1880 1987 2019 0
1881 2020 2065 0
1881 2065 2021 0
1643 1675 2024 0
1902 1964 2066 0
1902 2067 1938 0
1817 1965 1991 0
1939 1966 2027 0
1848 1847 2068 0
1847 1992 2068 0
1969 1993 2069 0
1943 1942 2070 0
1943 2070 2029 0
1995 1994 2030 0
1997 1996 2071 0
1997 2071 2031 0
2032 1998 2031 0
1853 2032 2072 0
1794 1853 2072 0
1909 1797 2073 0
1797 2034 2073 0
1909 2073 2035 0
1914 1913 2074 0
1857 1947 2037 0
1917 2038 1974 0
1918 1974 1949 0
2005 1919 2075 0
1975 2005 2075 0
1950 2039 2040 0
2041 2006 2076 0
2041 2076 2042 0
1920 2042 2007 0
2008 2007 2077 0
1951 2008 2078 0
2008 2077 2078 0
1951 2078 2043 0
1952 2043 2079 0
2009 1952 2079 0
1891 1976 2080 0
1892 1891 2080 0
1893 1977 2081 0
1893 2081 2082 0
1922 1893 2082 0
1922 2082 2083 0
1923 1922 2083 0
1923 2083 2046 0
1865 1978 2010 0
1866 2010 2047 0
1955 1954 2084 0
1954 2048 2084 0
1956 2049 2011 0
2051 2011 2085 0
1957 2012 2086 0
1982 1957 2086 0
1926 1982 2087 0
1958 1927 2088 0
1927 2053 2088 0
2055 1983 2089 0
1960 2055 2056 0
2014 1841 2090 0
1841 2058 2090 0
2014 2090 2059 0
2016 2015 2091 0
1986 1985 2092 0
1932 1812 2093 0
1812 2062 2093 0
1933 1932 2094 0
1932 2093 2094 0
1962 1813 2095 0
1935 2064 1987 0
2019 1987 2096 0
1988 2019 2097 0
2020 1988 2098 0
1988 2097 2098 0
2065 2020 2098 0
1936 2021 1989 0
1643 2024 2025 0
1963 2025 2099 0
1963 2099 2026 0
1964 1937 2026 0
1965 1990 1991 0
1966 1967 2100 0
1968 2027 2101 0
2028 1848 2068 0
1993 2028 2102 0
1970 1969 2069 0
1994 2029 2030 0
1996 1971 2103 0
2032 2031 2072 0
1854 1794 2104 0
1854 2104 2033 0
1999 2035 2105 0
1911 1999 2106 0
1999 2105 2106 0
1912 1911 2106 0
1912 2106 2107 0
1913 1912 2107 0
1913 2107 2108 0
1913 2108 2074 0
1944 2000 1945 0
1972 1946 2109 0
1947 2003 2110 0
1947 2110 2037 0
1948 1973 2111 0
1858 1948 2112 0
2039 1975 2113 0
2079 2043 2114 0
1976 2044 2115 0
1892 2080 2045 0
1977 2045 2116 0
1977 2116 2081 0
1980 2047 2048 0
1955 2084 2050 0
1981 2051 2117 0
1982 2086 2087 0
1926 2087 2118 0
1926 2118 2053 0
1958 2088 2013 0
1983 2054 2089 0
2056 2055 2119 0
2058 2057 2120 0
2057 2056 2120 0
1985 2061 2121 0
2061 2016 2121 0
1985 2121 2092 0
1876 1986 2062 0
2017 1933 2122 0
2018 1877 2123 0
1877 2017 2123 0
1813 1934 2095 0
1730 1962 2124 0
1987 2064 2125 0
1987 2125 2096 0
1989 2021 2126 0
1674 1816 2127 0
1816 1844 2127 0
1674 2127 2128 0
2066 1964 2129 0
1902 2066 2130 0
1902 2130 2067 0
1990 1938 2131 0
1967 1991 2132 0
2027 1966 2100 0
1942 1970 2133 0
1942 2133 2134 0
2070 1942 2134 0
2029 2070 2135 0
2030 2029 2136 0
1996 2103 2071 0
2031 2071 2137 0
2072 2031 2138 0
2034 2033 2139 0
1914 2074 2140 0
2001 1945 2141 0
1972 2109 2002 0
2037 2110 2142 0
2037 2142 1973 0
1973 2143 2111 0
1948 2111 2112 0
2004 1949 2144 0
1919 2004 2075 0
1975 2075 2113 0
2040 2039 2145 0
2006 2040 2076 0
2007 2042 2146 0
2007 2146 2077 0
2043 2078 2114 0
2079 2114 2009 0
2048 2047 2147 0
2084 2048 2148 0
2050 2084 2149 0
2049 2050 2149 0
2011 2049 2150 0
2085 2011 2151 0
2011 2150 2151 0
2051 2085 2117 0
2052 1981 2152 0
1981 2117 2152 0
2012 2052 2153 0
2012 2153 2154 0
2086 2012 2154 0
2087 2086 2155 0
2013 2088 2156 0
2013 2156 2054 0
2089 2054 2157 0
2054 2158 2157 0
2055 2089 2157 0
2055 2157 2119 0
2058 2120 2090 0
2059 2090 2159 0
2060 2059 2160 0
2015 2060 2161 0
2060 2160 2161 0
2091 2015 2161 0
1933 2094 2122 0
1781 1730 2124 0
1781 2124 2063 0
2097 2019 2162 0
2019 2096 2162 0
2098 2097 2163 0
2065 2098 2164 0
2098 2163 2164 0
2021 2065 2165 0
2022 1989 2166 0
1844 2023 2167 0
2127 1844 2168 0
1642 1674 2128 0
1642 2128 2024 0
1964 2026 2129 0
2130 2066 2129 0
1938 2067 2131 0
1990 2131 2169 0
1991 1990 2169 0
1991 2170 2132 0
1967 2132 2171 0
1967 2171 2100 0
1992 1968 2172 0
1968 2101 2172 0
1992 2172 2173 0
2068 1992 2173 0
2028 2068 2174 0
1993 2102 2175 0
2069 1993 2175 0
2069 2175 1970 0
2070 2134 2135 0
2029 2135 2136 0
1971 2030 2176 0
2071 2103 2137 0
2031 2137 2138 0
2072 2138 2177 0
1794 2072 2104 0
2072 2177 2104 0
2033 2104 2139 0
2035 2073 2178 0
2035 2178 2105 0
2106 2105 2179 0
2107 2106 2180 0
2107 2180 2181 0
2108 2107 2182 0
2107 2181 2182 0
2108 2182 2074 0
2074 2183 2140 0
2001 2141 2036 0
1946 2036 2184 0
2036 2185 2184 0
2003 2002 2186 0
2110 2003 2187 0
2003 2186 2187 0
2112 2188 1858 0
1974 2038 2189 0
1949 1974 2190 0
2075 2004 2144 0
2039 2113 2145 0
2040 2145 2076 0
2042 2191 2146 0
2078 2192 2114 0
2044 2009 2193 0
2044 2193 2115 0
1976 2115 2080 0
2045 2080 2194 0
2116 2045 2194 0
2082 2081 2195 0
2082 2195 2083 0
2046 2083 2196 0
1978 2046 2196 0
1978 2197 2010 0
2084 2148 2149 0
2117 2085 2198 0
2117 2198 2152 0
2052 2152 2153 0
2086 2154 2155 0
2087 2155 2118 0
2054 2156 2199 0
2120 2056 2200 0
2056 2119 2200 0
2059 2159 2160 0
2121 2016 2201 0
2016 2091 2201 0
2017 2122 2202 0
2064 2063 2203 0
2064 2203 2125 0
2065 2164 2165 0
2021 2165 2126 0
2166 1989 2204 0
2022 2166 2023 0
2025 2024 2205 0
2026 2099 2206 0
1991 2169 2170 0
2101 2027 2207 0
2068 2173 2208 0
2174 2068 2208 0
2102 2028 2174 0
2133 1970 2209 0
2030 2136 2210 0
2030 2210 2176 0
1971 2176 2103 0
2138 2137 2211 0
2104 2212 2139 0
2034 2139 2213 0
2073 2034 2213 0
2073 2213 2178 0
2074 2182 2183 0
1914 2140 2214 0
1914 2214 2000 0
1945 2215 2141 0
1945 2000 2215 0
2036 2141 2185 0
2109 1946 2216 0
1946 2184 2216 0
2002 2109 2217 0
2002 2217 2218 0
2002 2218 2186 0
2110 2187 2142 0
1973 2142 2143 0
2111 2143 2219 0
2112 2111 2219 0
2112 2219 2188 0
1974 2189 2190 0
1949 2190 2144 0
2042 2076 2191 0
2077 2146 2078 0
2083 2220 2196 0
1978 2196 2197 0
2049 2149 2150 0
2198 2085 2221 0
2085 2151 2221 0
2153 2152 2222 0
2153 2222 2154 0
2155 2154 2223 0
2053 2118 2224 0
2088 2053 2225 0
2053 2224 2225 0
2088 2225 2226 0
2156 2088 2227 0
2088 2226 2227 0
2158 2054 2228 0
2054 2199 2228 0
2157 2158 2229 0
2157 2229 2119 0
2119 2230 2200 0
2090 2120 2231 0
2120 2200 2231 0
2159 2090 2232 0
2160 2159 2233 0
2091 2161 2234 0
2201 2091 2235 0
2091 2234 2235 0
2121 2201 2092 0
2093 2062 2094 0
2017 2202 2123 0
1878 2018 2236 0
1934 1878 2237 0
2096 2125 2238 0
2162 2096 2239 0
2097 2162 2163 0
1989 2126 2240 0
1989 2240 2204 0
1844 2167 2241 0
2168 1844 2241 0
2127 2168 2128 0
2129 2026 2242 0
2131 2067 2243 0
2169 2131 2244 0
2169 2245 2170 0
2132 2170 2171 0
2172 2101 2207 0
1970 2175 2209 0
2135 2134 2246 0
2134 2133 2246 0
2136 2135 2247 0
2136 2247 2210 0
2103 2176 2248 0
2137 2103 2249 0
2137 2249 2250 0
2137 2250 2211 0
2104 2177 2212 0
2177 2138 2212 0
2106 2179 2180 0
2141 2251 2185 0
2252 1858 2188 0
1858 2252 2038 0
2113 2075 2253 0
2145 2254 2076 0
2191 2076 2255 0
2009 2114 2256 0
2194 2080 2257 0
2116 2194 2257 0
2081 2116 2257 0
2083 2195 2220 0
2147 2047 2258 0
2147 2259 2048 0
2148 2048 2259 0
2149 2260 2150 0
2151 2150 2261 0
2151 2261 2221 0
2198 2221 2262 0
2118 2155 2224 0
2156 2227 2263 0
2227 2226 2263 0
2156 2263 2199 0
2158 2228 2229 0
2090 2231 2232 0
2159 2232 2233 0
2160 2233 2264 0
2161 2160 2264 0
1986 2092 2265 0
2122 2094 2202 0
1878 2236 2237 0
2095 1934 2237 0
2163 2162 2266 0
2162 2239 2266 0
2164 2163 2267 0
2165 2164 2267 0
2126 2268 2240 0
2167 2023 2241 0
2025 2205 2269 0
2099 2025 2269 0
2067 2130 2243 0
2131 2243 2244 0
2169 2244 2245 0
2174 2208 2270 0
2102 2174 2270 0
2175 2102 2271 0
2175 2271 2209 0
2176 2210 2248 0
2103 2248 2249 0
2105 2178 2179 0
2180 2179 2181 0
2183 2182 2272 0
2109 2216 2217 0
2186 2218 2187 0
2075 2144 2273 0
2075 2273 2253 0
2145 2113 2274 0
2145 2274 2254 0
2076 2254 2275 0
2076 2275 2255 0
2146 2191 2255 0
2192 2078 2276 0
2114 2192 2277 0
2009 2256 2193 0
2080 2115 2278 0
2081 2279 2195 0
2196 2280 2197 0
2010 2197 2281 0
2010 2281 2282 0
2147 2258 2259 0
2150 2260 2261 0
2152 2198 2283 0
2198 2262 2283 0
2152 2283 2222 0
2199 2263 2284 0
2228 2199 2284 0
2119 2229 2230 0
2200 2230 2285 0
2231 2200 2286 0
2200 2285 2286 0
2233 2232 2287 0
2264 2233 2288 0
2233 2287 2288 0
2161 2264 2234 0
2092 2201 2265 0
2062 1986 2289 0
1986 2265 2289 0
2062 2289 2290 0
2094 2062 2291 0
2018 2123 2236 0
2096 2238 2239 0
2024 2292 2205 0
2269 2205 2293 0
2206 2099 2269 0
2026 2206 2294 0
2026 2294 2242 0
2171 2295 2100 0
2027 2100 2296 0
2027 2296 2297 0
2207 2027 2297 0
2270 2208 2298 0
2102 2270 2271 0
2246 2133 2299 0
2133 2209 2299 0
2135 2246 2300 0
2247 2135 2301 0
2135 2300 2301 0
2210 2247 2301 0
2210 2301 2302 0
2210 2302 2248 0
2179 2178 2303 0
2182 2181 2272 0
2183 2272 2140 0
2000 2214 2304 0
2185 2251 2184 0
2142 2187 2305 0
2143 2142 2305 0
2038 2252 2189 0
2144 2190 2306 0
2113 2253 2274 0
2146 2255 2307 0
2078 2146 2307 0
2078 2307 2308 0
2192 2276 2277 0
2256 2114 2309 0
2257 2080 2310 0
2080 2278 2310 0
2081 2257 2279 0
2220 2195 2311 0
2196 2220 2311 0
2280 2196 2311 0
2047 2010 2312 0
2010 2282 2312 0
2047 2312 2258 0
2259 2258 2313 0
2222 2283 2314 0
2154 2222 2314 0
2223 2154 2315 0
2154 2314 2315 0
2155 2223 2316 0
2155 2316 2317 0
2224 2155 2318 0
2155 2317 2318 0
2225 2224 2318 0
2226 2225 2318 0
2263 2226 2319 0
2263 2319 2320 0
2284 2263 2320 0
2228 2284 2321 0
2229 2228 2321 0
2230 2229 2322 0
2229 2323 2322 0
2234 2264 2324 0
2235 2234 2324 0
2062 2290 2325 0
2062 2325 2291 0
2094 2291 2202 0
2063 2124 2326 0
2063 2326 2203 0
2125 2203 2327 0
2163 2328 2267 0
2126 2165 2268 0
2023 2166 2204 0
2128 2168 2329 0
2024 2128 2292 0
2128 2330 2292 0
2205 2292 2293 0
2129 2242 2130 0
2208 2173 2331 0
2173 2332 2331 0
2208 2331 2298 0
2209 2271 2333 0
2301 2300 2334 0
2248 2302 2335 0
2248 2336 2249 0
2138 2211 2212 0
2139 2212 2337 0
2213 2139 2337 0
2140 2272 2338 0
2214 2140 2338 0
2000 2304 2215 0
2187 2218 2305 0
2188 2219 2339 0
2189 2252 2340 0
2189 2341 2342 0
2190 2189 2342 0
2190 2342 2343 0
2190 2343 2306 0
2144 2306 2273 0
2255 2275 2344 0
2078 2308 2276 0
2114 2277 2309 0
2193 2256 2345 0
2193 2345 2115 0
2195 2279 2346 0
2282 2281 2347 0
2258 2348 2313 0
2148 2259 2349 0
2148 2349 2350 0
2149 2148 2350 0
2260 2149 2351 0
2149 2350 2351 0
2261 2260 2352 0
2221 2261 2352 0
2262 2221 2353 0
2223 2315 2316 0
2226 2318 2354 0
2226 2354 2319 0
2284 2320 2321 0
2229 2321 2323 0
2230 2322 2285 0
2232 2231 2355 0
2231 2286 2355 0
2287 2232 2356 0
2232 2355 2356 0
2265 2201 2289 0
2202 2291 2357 0
2124 1962 2326 0
2125 2327 2238 0
2266 2239 2358 0
2163 2266 2328 0
2268 2165 2359 0
2165 2267 2359 0
2240 2268 2360 0
2204 2240 2361 0
2023 2204 2362 0
2128 2329 2330 0
2171 2170 2363 0
2100 2364 2296 0
2270 2298 2365 0
2271 2270 2365 0
2300 2246 2299 0
2300 2299 2334 0
2301 2334 2366 0
2302 2301 2366 0
2302 2366 2335 0
2248 2335 2336 0
2249 2367 2250 0
2179 2303 2368 0
2219 2143 2369 0
2188 2339 2370 0
2252 2188 2370 0
2252 2370 2371 0
2274 2253 2372 0
2275 2254 2373 0
2275 2373 2344 0
2277 2276 2308 0
2277 2308 2374 0
2277 2374 2309 0
2256 2309 2345 0
2278 2115 2375 0
2279 2257 2376 0
2195 2346 2311 0
2280 2311 2377 0
2197 2280 2377 0
2281 2197 2377 0
2281 2377 2347 0
2282 2347 2378 0
2312 2282 2378 0
2258 2312 2348 0
2259 2313 2349 0
2260 2379 2352 0
2221 2352 2353 0
2314 2283 2380 0
2314 2380 2315 0
2321 2320 2381 0
2285 2322 2382 0
2288 2287 2383 0
2264 2288 2384 0
2324 2264 2384 0
2201 2235 2385 0
2289 2201 2386 0
2290 2289 2325 0
2123 2202 2387 0
2237 2236 2388 0
2239 2238 2358 0
2268 2359 2360 0
2240 2360 2361 0
2389 2023 2362 0
2241 2023 2389 0
2329 2168 2390 0
2245 2244 2391 0
2170 2245 2363 0
2171 2363 2295 0
2100 2295 2364 0
2298 2331 2392 0
2298 2392 2365 0
2271 2365 2393 0
2333 2271 2393 0
2209 2333 2394 0
2299 2209 2394 0
2336 2335 2395 0
2335 2366 2395 0
2249 2336 2396 0
2249 2396 2367 0
2211 2397 2212 0
2212 2398 2337 0
2213 2337 2178 0
2184 2251 2399 0
2184 2399 2216 0
2216 2400 2217 0
2305 2218 2401 0
2143 2305 2369 0
2219 2369 2339 0
2252 2371 2340 0
2189 2340 2341 0
2342 2341 2402 0
2342 2402 2343 0
2253 2273 2403 0
2274 2372 2254 0
2255 2344 2404 0
2307 2255 2405 0
2255 2404 2405 0
2307 2405 2406 0
2115 2345 2375 0
2257 2310 2407 0
2279 2376 2346 0
2311 2346 2408 0
2312 2378 2348 0
2350 2349 2351 0
2353 2352 2409 0
2262 2353 2410 0
2283 2262 2410 0
2283 2410 2380 0
2317 2316 2318 0
2354 2318 2411 0
2320 2319 2412 0
2320 2412 2381 0
2323 2321 2413 0
2322 2323 2382 0
2323 2413 2382 0
2286 2285 2414 0
2285 2382 2414 0
2355 2286 2415 0
2286 2414 2415 0
2356 2355 2416 0
2355 2415 2416 0
2287 2356 2416 0
2287 2416 2383 0
2288 2383 2417 0
2384 2288 2418 0
2235 2324 2385 0
2201 2385 2386 0
2202 2419 2387 0
2236 2123 2420 0
2123 2387 2420 0
2203 2421 2327 0
2266 2358 2422 0
2328 2266 2423 0
2361 2360 2424 0
2362 2204 2425 0
2426 2241 2389 0
2168 2241 2427 0
2390 2168 2427 0
2330 2329 2428 0
2206 2269 2429 0
2294 2206 2429 0
2244 2243 2430 0
2244 2430 2391 0
2173 2172 2332 0
2331 2332 2392 0
2393 2365 2431 0
2333 2393 2394 0
2334 2299 2432 0
2334 2432 2433 0
2366 2334 2433 0
2336 2395 2434 0
2336 2434 2396 0
2250 2367 2435 0
2211 2250 2436 0
2211 2436 2397 0
2212 2397 2437 0
2212 2437 2398 0
2337 2398 2438 0
2216 2399 2439 0
2216 2439 2400 0
2217 2400 2401 0
2218 2217 2401 0
2253 2403 2372 0
2254 2372 2373 0
2308 2307 2440 0
2307 2406 2440 0
2345 2309 2441 0
2278 2375 2442 0
2278 2442 2310 0
2311 2408 2377 0
2351 2349 2443 0
2260 2351 2444 0
2379 2260 2444 0
2379 2444 2445 0
2353 2409 2410 0
2315 2380 2446 0
2316 2315 2446 0
2318 2316 2447 0
2319 2354 2448 0
2319 2448 2412 0
2413 2321 2449 0
2321 2381 2449 0
2382 2413 2450 0
2415 2414 2416 0
2288 2417 2418 0
2324 2384 2451 0
2385 2324 2452 0
2324 2451 2452 0
2386 2385 2453 0
2325 2289 2454 0
2202 2357 2455 0
2202 2455 2419 0
2236 2420 2388 0
2203 2326 2456 0
2203 2456 2421 0
2238 2327 2457 0
2358 2238 2457 0
2204 2361 2425 0
2362 2425 2458 0
2362 2458 2389 0
2241 2426 2427 0
2329 2390 2459 0
2428 2329 2459 0
2269 2293 2460 0
2130 2242 2461 0
2363 2245 2462 0
2296 2364 2463 0
2297 2296 2463 0
2172 2207 2464 0
2332 2172 2465 0
2172 2464 2465 0
2392 2332 2465 0
2365 2392 2466 0
2393 2431 2394 0
2299 2394 2467 0
2250 2435 2436 0
2398 2468 2438 0
2337 2438 2468 0
2178 2337 2469 0
2337 2468 2469 0
2178 2469 2303 0
2303 2470 2368 0
2304 2214 2471 0
2214 2338 2471 0
2215 2304 2472 0
2305 2401 2473 0
2305 2473 2369 0
2370 2339 2371 0
2340 2371 2474 0
2341 2340 2474 0
2343 2402 2475 0
2343 2475 2306 0
2273 2306 2476 0
2403 2273 2476 0
2404 2344 2477 0
2405 2404 2477 0
2405 2477 2478 0
2406 2405 2478 0
2308 2440 2374 0
2309 2374 2441 0
2310 2442 2407 0
2376 2257 2479 0
2408 2346 2480 0
2346 2481 2480 0
2377 2408 2482 0
2347 2377 2483 0
2378 2347 2484 0
2348 2378 2485 0
2348 2485 2313 0
2313 2486 2349 0
2351 2443 2444 0
2352 2379 2487 0
2379 2445 2487 0
2409 2352 2487 0
2409 2487 2488 0
2446 2380 2489 0
2411 2318 2490 0
2318 2447 2490 0
2354 2411 2491 0
2354 2491 2448 0
2413 2449 2450 0
2382 2450 2492 0
2414 2382 2493 0
2382 2492 2493 0
2416 2414 2494 0
2454 2289 2495 0
2291 2325 2496 0
2325 2454 2496 0
2237 2497 2095 0
1962 2095 2498 0
2358 2457 2499 0
2266 2422 2423 0
2267 2328 2500 0
2359 2267 2500 0
2360 2359 2501 0
2390 2427 2459 0
2293 2292 2502 0
2243 2130 2503 0
2243 2503 2430 0
2364 2295 2504 0
2207 2297 2505 0
2464 2207 2506 0
2432 2299 2507 0
2299 2467 2507 0
2366 2433 2395 0
2396 2434 2508 0
2396 2508 2367 0
2437 2397 2509 0
2397 2436 2509 0
2437 2509 2398 0
2398 2510 2468 0
2141 2215 2511 0
2251 2512 2399 0
2400 2513 2401 0
2369 2473 2514 0
2371 2515 2474 0
2406 2478 2440 0
2257 2407 2516 0
2257 2516 2517 0
2257 2517 2479 0
2346 2376 2481 0
2376 2479 2481 0
2377 2482 2518 0
2377 2518 2483 0
2378 2484 2485 0
2349 2486 2519 0
2443 2349 2519 0
2410 2409 2520 0
2409 2488 2520 0
2410 2520 2521 0
2380 2410 2522 0
2410 2521 2522 0
2380 2522 2489 0
2316 2446 2523 0
2491 2411 2524 0
2411 2490 2524 0
2412 2448 2525 0
2381 2412 2526 0
2381 2526 2449 0
2414 2493 2494 0
2383 2416 2527 0
2416 2494 2527 0
2383 2528 2417 0
2418 2417 2529 0
2384 2418 2530 0
2384 2530 2451 0
2452 2451 2385 0
2453 2385 2531 0
2453 2531 2386 0
2289 2386 2495 0
2237 2388 2497 0
1962 2498 2326 0
2327 2421 2532 0
2457 2327 2532 0
2422 2358 2533 0
2358 2499 2533 0
2328 2423 2500 0
2359 2500 2534 0
2360 2501 2535 0
2424 2360 2535 0
2361 2424 2425 0
2426 2389 2536 0
2427 2426 2537 0
2426 2536 2537 0
2459 2427 2537 0
2330 2428 2538 0
2292 2330 2539 0
2429 2269 2540 0
2242 2294 2541 0
2130 2461 2503 0
2245 2391 2462 0
2295 2363 2462 0
2463 2364 2504 0
2463 2504 2542 0
2297 2463 2543 0
2505 2297 2543 0
2207 2505 2506 0
2392 2465 2466 0
2431 2365 2544 0
2467 2394 2545 0
2507 2467 2546 0
2433 2432 2547 0
2432 2507 2547 0
2395 2433 2548 0
2395 2548 2434 0
2367 2508 2435 0
2398 2509 2549 0
2398 2549 2510 0
2469 2468 2550 0
2303 2469 2551 0
2272 2181 2552 0
2272 2553 2338 0
2400 2439 2513 0
2369 2554 2339 0
2371 2339 2555 0
2371 2555 2515 0
2375 2345 2556 0
2375 2556 2442 0
2407 2442 2516 0
2408 2480 2482 0
2484 2347 2557 0
2313 2485 2486 0
2444 2443 2558 0
2445 2444 2558 0
2487 2445 2559 0
2445 2558 2559 0
2488 2487 2560 0
2316 2523 2447 0
2448 2491 2561 0
2448 2561 2525 0
2412 2525 2526 0
2449 2526 2562 0
2450 2449 2563 0
2492 2450 2564 0
2450 2563 2564 0
2492 2564 2493 0
2383 2527 2528 0
2418 2529 2530 0
2385 2451 2565 0
2385 2565 2531 0
2357 2291 2566 0
2291 2496 2566 0
2455 2357 2419 0
2423 2422 2567 0
2534 2500 2568 0
2359 2534 2568 0
2359 2568 2501 0
2425 2424 2569 0
2389 2458 2536 0
2428 2459 2538 0
2330 2538 2539 0
2292 2539 2502 0
2460 2293 2570 0
2293 2502 2570 0
2269 2460 2540 0
2391 2430 2571 0
2391 2571 2462 0
2543 2463 2542 0
2506 2505 2543 0
2464 2506 2465 0
2365 2466 2544 0
2394 2431 2545 0
2467 2545 2546 0
2507 2546 2547 0
2433 2547 2572 0
2433 2572 2548 0
2434 2548 2573 0
2508 2434 2574 0
2434 2573 2574 0
2509 2436 2575 0
2509 2575 2549 0
2469 2550 2576 0
2469 2576 2551 0
2470 2303 2551 0
2181 2179 2552 0
2272 2552 2553 0
2304 2471 2472 0
2141 2511 2251 0
2399 2512 2439 0
2401 2513 2577 0
2473 2401 2578 0
2369 2514 2554 0
2474 2515 2579 0
2374 2440 2580 0
2441 2374 2581 0
2374 2580 2581 0
2345 2441 2556 0
2518 2482 2582 0
2518 2582 2583 0
2347 2483 2557 0
2519 2584 2443 0
2487 2559 2560 0
2521 2520 2522 0
2522 2585 2489 0
2523 2446 2586 0
2446 2489 2586 0
2447 2523 2587 0
2447 2587 2490 0
2490 2588 2524 0
2491 2524 2589 0
2491 2589 2561 0
2526 2525 2590 0
2449 2562 2563 0
2493 2564 2591 0
2494 2493 2592 0
2527 2494 2593 0
2494 2592 2593 0
2417 2528 2594 0
2417 2594 2529 0
2530 2529 2595 0
2495 2386 2596 0
2386 2531 2596 0
2419 2357 2597 0
2357 2566 2597 0
2499 2457 2598 0
2457 2532 2598 0
2499 2599 2533 0
2422 2533 2600 0
2422 2600 2567 0
2423 2567 2601 0
2500 2423 2601 0
2536 2458 2602 0
2294 2429 2541 0
2242 2541 2603 0
2242 2603 2461 0
2430 2503 2604 0
2430 2604 2571 0
2504 2295 2605 0
2573 2548 2574 0
2435 2508 2606 0
2435 2606 2607 0
2436 2435 2607 0
2436 2607 2575 0
2510 2549 2468 0
2179 2368 2608 0
2179 2608 2552 0
2215 2472 2609 0
2215 2609 2511 0
2473 2578 2514 0
2555 2339 2610 0
2341 2474 2611 0
2402 2341 2611 0
2475 2402 2612 0
2306 2475 2613 0
2475 2612 2613 0
2476 2306 2613 0
2476 2613 2403 0
2372 2403 2614 0
2477 2344 2615 0
2478 2477 2616 0
2478 2617 2440 0
2441 2581 2556 0
2516 2442 2618 0
2479 2517 2619 0
2481 2479 2620 0
2480 2481 2621 0
2482 2480 2582 0
2483 2518 2583 0
2485 2484 2622 0
2486 2485 2623 0
2519 2486 2623 0
2488 2560 2624 0
2520 2488 2624 0
2520 2624 2625 0
2522 2520 2626 0
2520 2625 2626 0
2523 2586 2587 0
2490 2587 2627 0
2490 2627 2588 0
2524 2588 2589 0
2526 2590 2562 0
2493 2591 2628 0
2493 2628 2592 0
2528 2527 2629 0
2529 2594 2595 0
2451 2530 2630 0
2530 2595 2630 0
2454 2495 2631 0
2496 2454 2632 0
2454 2631 2632 0
2566 2496 2632 0
2387 2419 2633 0
2497 2388 2634 0
2095 2497 2635 0
2095 2635 2498 0
2421 2456 2636 0
2499 2598 2599 0
2500 2601 2568 0
2501 2568 2637 0
2501 2637 2638 0
2501 2638 2535 0
2424 2535 2569 0
2459 2537 2639 0
2460 2570 2540 0
2503 2461 2640 0
2295 2462 2605 0
2547 2546 2641 0
2547 2641 2572 0
2575 2607 2642 0
2551 2576 2643 0
2470 2551 2644 0
2368 2470 2644 0
2368 2644 2608 0
2338 2553 2645 0
2471 2338 2645 0
2251 2511 2512 0
2513 2439 2646 0
2578 2401 2647 0
2554 2514 2648 0
2339 2554 2649 0
2474 2579 2611 0
2403 2613 2650 0
2403 2650 2614 0
2373 2372 2651 0
2344 2373 2615 0
2478 2616 2617 0
2580 2440 2617 0
2581 2580 2652 0
2442 2653 2618 0
2517 2516 2654 0
2479 2619 2620 0
2484 2557 2655 0
2484 2655 2622 0
2485 2622 2623 0
2519 2623 2584 0
2443 2584 2656 0
2522 2626 2657 0
2626 2625 2657 0
2585 2522 2657 0
2489 2585 2658 0
2586 2489 2659 0
2586 2659 2587 0
2525 2561 2660 0
2562 2590 2661 0
2591 2564 2662 0
2564 2563 2662 0
2591 2662 2628 0
2592 2628 2593 0
2629 2527 2663 0
2527 2593 2663 0
2594 2528 2664 0
2528 2629 2664 0
2595 2594 2665 0
2451 2630 2565 0
2596 2531 2666 0
2495 2596 2631 0
2566 2632 2597 0
2419 2597 2633 0
2420 2387 2667 0
2387 2633 2667 0
2326 2498 2668 0
2326 2668 2456 0
2599 2598 2669 0
2533 2599 2670 0
2533 2670 2600 0
2601 2567 2671 0
2568 2601 2671 0
2425 2569 2672 0
2458 2425 2673 0
2602 2458 2674 0
2536 2602 2675 0
2537 2536 2675 0
2461 2603 2640 0
2504 2605 2542 0
2466 2465 2676 0
2544 2466 2676 0
2431 2544 2677 0
2544 2676 2677 0
2431 2677 2678 0
2545 2431 2678 0
2545 2678 2679 0
2546 2545 2680 0
2545 2679 2680 0
2546 2680 2641 0
2508 2574 2606 0
2607 2606 2681 0
2642 2607 2681 0
2575 2642 2682 0
2642 2681 2682 0
2550 2468 2576 0
2551 2643 2644 0
2553 2552 2683 0
2471 2645 2684 0
2471 2684 2472 0
2439 2512 2646 0
2577 2513 2685 0
2554 2648 2649 0
2339 2649 2610 0
2611 2579 2686 0
2402 2611 2687 0
2612 2402 2687 0
2372 2614 2651 0
2373 2651 2615 0
2442 2556 2688 0
2653 2442 2688 0
2516 2618 2654 0
2517 2654 2619 0
2481 2620 2621 0
2480 2621 2582 0
2483 2583 2689 0
2557 2483 2689 0
2557 2689 2690 0
2557 2690 2655 0
2443 2656 2691 0
2558 2443 2691 0
2560 2559 2624 0
2585 2657 2658 0
2489 2658 2659 0
2561 2589 2692 0
2660 2561 2692 0
2590 2525 2693 0
2525 2660 2693 0
2590 2693 2661 0
2563 2562 2694 0
2562 2661 2694 0
2628 2662 2695 0
2593 2628 2696 0
2629 2663 2697 0
2664 2629 2698 0
2629 2697 2698 0
2594 2664 2665 0
2595 2665 2630 0
2565 2630 2699 0
2531 2565 2700 0
2596 2666 2631 0
2597 2632 2701 0
2388 2420 2702 0
2420 2667 2702 0
2388 2702 2634 0
2497 2634 2703 0
2498 2635 2668 0
2421 2636 2704 0
2532 2421 2704 0
2598 2532 2705 0
2598 2705 2669 0
2567 2600 2706 0
2568 2671 2707 0
2568 2707 2637 0
2673 2425 2672 0
2458 2673 2708 0
2458 2708 2674 0
2675 2602 2709 0
2537 2675 2639 0
2539 2538 2710 0
2502 2539 2710 0
2502 2710 2711 0
2502 2711 2570 0
2605 2462 2712 0
2506 2543 2713 0
2465 2506 2713 0
2465 2713 2714 0
2465 2714 2715 0
2676 2465 2715 0
2574 2548 2716 0
2548 2717 2716 0
2574 2716 2606 0
2575 2682 2549 0
2468 2549 2718 0
2468 2718 2719 0
2468 2719 2576 0
2643 2576 2720 0
2472 2684 2721 0
2513 2646 2685 0
2401 2577 2722 0
2577 2685 2722 0
2401 2722 2647 0
2555 2610 2723 0
2515 2555 2723 0
2579 2515 2723 0
2614 2650 2651 0
2477 2724 2616 0
2618 2653 2654 0
2582 2621 2725 0
2584 2623 2726 0
2584 2726 2656 0
2558 2691 2727 0
2559 2558 2728 0
2558 2727 2728 0
2624 2559 2729 0
2657 2625 2730 0
2625 2624 2730 0
2659 2658 2731 0
2587 2659 2732 0
2587 2732 2627 0
2589 2588 2733 0
2589 2733 2692 0
2660 2692 2734 0
2563 2694 2735 0
2662 2563 2736 0
2563 2735 2736 0
2662 2736 2695 0
2696 2628 2737 0
2628 2695 2737 0
2593 2696 2738 0
2696 2737 2738 0
2663 2593 2739 0
2593 2738 2739 0
2663 2739 2697 0
2665 2664 2740 0
2664 2698 2740 0
2630 2665 2741 0
2700 2565 2742 0
2565 2699 2742 0
2700 2742 2531 0
2666 2531 2742 0
2632 2631 2743 0
2633 2597 2744 0
2497 2703 2635 0
2600 2670 2706 0
2535 2638 2745 0
2638 2637 2745 0
2569 2535 2746 0
2602 2674 2709 0
2639 2675 2747 0
2538 2459 2639 0
2429 2540 2748 0
2503 2640 2749 0
2604 2503 2749 0
2571 2750 2462 0
2543 2542 2751 0
2543 2751 2713 0
2678 2677 2752 0
2677 2676 2752 0
2680 2679 2641 0
2572 2641 2753 0
2548 2572 2754 0
2548 2754 2717 0
2606 2716 2755 0
2681 2606 2756 0
2681 2756 2682 0
2549 2682 2757 0
2549 2757 2718 0
2644 2643 2758 0
2643 2720 2758 0
2608 2644 2759 0
2608 2759 2760 0
2552 2608 2761 0
2552 2761 2683 0
2553 2683 2762 0
2553 2762 2645 0
2511 2609 2763 0
2511 2763 2764 0
2512 2511 2764 0
2646 2512 2765 0
2578 2647 2766 0
2514 2578 2766 0
2514 2766 2767 0
2514 2767 2648 0
2579 2723 2686 0
2477 2615 2724 0
2580 2617 2768 0
2580 2768 2652 0
2581 2652 2556 0
2654 2653 2769 0
2582 2725 2583 0
2689 2583 2770 0
2583 2771 2770 0
2656 2726 2691 0
2559 2728 2729 0
2658 2657 2772 0
2731 2658 2773 0
2658 2772 2773 0
2588 2627 2774 0
2588 2774 2733 0
2692 2733 2775 0
2692 2775 2734 0
2660 2734 2693 0
2661 2693 2776 0
2694 2661 2777 0
2694 2777 2735 0
2739 2738 2697 0
2665 2740 2741 0
2666 2742 2778 0
2631 2666 2779 0
2701 2632 2743 0
2597 2701 2780 0
2597 2780 2744 0
2667 2633 2744 0
2456 2668 2781 0
2669 2705 2782 0
2670 2599 2783 0
2599 2669 2783 0
2670 2783 2784 0
2671 2567 2785 0
2567 2706 2785 0
2707 2671 2786 0
2637 2707 2787 0
2535 2745 2746 0
2569 2746 2672 0
2673 2672 2788 0
2673 2788 2708 0
2675 2709 2789 0
2538 2639 2790 0
2710 2538 2790 0
2570 2711 2748 0
2540 2570 2748 0
2429 2748 2541 0
2571 2604 2791 0
2605 2712 2792 0
2714 2713 2793 0
2572 2753 2754 0
2606 2755 2756 0
2757 2682 2794 0
2609 2472 2763 0
2512 2764 2795 0
2646 2765 2685 0
2615 2651 2796 0
2617 2616 2797 0
2616 2724 2797 0
2653 2798 2769 0
2620 2619 2799 0
2583 2725 2771 0
2689 2770 2690 0
2622 2655 2800 0
2622 2800 2623 0
2726 2623 2801 0
2727 2691 2802 0
2727 2802 2803 0
2727 2803 2728 0
2657 2730 2772 0
2659 2731 2804 0
2731 2773 2804 0
2627 2732 2805 0
2733 2774 2806 0
2733 2806 2775 0
2693 2734 2807 0
2693 2807 2776 0
2661 2776 2777 0
2736 2735 2808 0
2735 2777 2808 0
2695 2736 2809 0
2695 2809 2737 0
2697 2738 2810 0
2738 2737 2810 0
2741 2740 2811 0
2630 2741 2812 0
2741 2811 2812 0
2631 2779 2743 0
2668 2635 2813 0
2705 2532 2814 0
2705 2814 2782 0
2670 2784 2706 0
2786 2671 2785 0
2637 2787 2745 0
2709 2674 2815 0
2789 2709 2815 0
2710 2790 2816 0
2710 2816 2711 0
2541 2748 2817 0
2462 2750 2818 0
2542 2605 2792 0
2542 2792 2819 0
2751 2542 2819 0
2713 2751 2793 0
2678 2752 2820 0
2678 2820 2679 0
2717 2754 2821 0
2716 2717 2821 0
2716 2821 2755 0
2682 2756 2822 0
2682 2822 2823 0
2682 2823 2794 0
2718 2757 2794 0
2644 2758 2759 0
2608 2760 2761 0
2683 2761 2824 0
2684 2645 2825 0
2645 2762 2825 0
2647 2722 2826 0
2611 2686 2827 0
2650 2828 2829 0
2651 2650 2829 0
2651 2829 2830 0
2615 2796 2724 0
2556 2652 2831 0
2556 2831 2832 0
2688 2556 2833 0
2653 2688 2834 0
2653 2834 2798 0
2619 2654 2835 0
2690 2770 2655 0
2623 2800 2801 0
2691 2726 2836 0
2691 2836 2802 0
2728 2803 2729 0
2730 2624 2837 0
2624 2729 2837 0
2732 2659 2838 0
2659 2804 2838 0
2732 2838 2805 0
2774 2627 2805 0
2774 2805 2806 0
2775 2806 2839 0
2734 2775 2840 0
2775 2839 2840 0
2736 2808 2841 0
2736 2841 2809 0
2737 2809 2842 0
2697 2810 2843 0
2698 2697 2844 0
2697 2843 2844 0
2740 2698 2844 0
2740 2844 2811 0
2699 2630 2845 0
2630 2812 2845 0
2779 2666 2846 0
2666 2778 2846 0
2669 2782 2783 0
2785 2706 2847 0
2706 2848 2847 0
2746 2745 2849 0
2672 2746 2850 0
2788 2672 2850 0
2708 2788 2851 0
2674 2708 2851 0
