#!ascii version written be Caret
6138 12272
17.483583 45.189110 5.445523 0
38.106689 29.726774 6.144067 0
34.668179 25.765793 5.136844 0
35.167713 17.118408 4.799720 0
39.107121 13.435744 6.333259 0
2.736729 10.973778 8.930070 0
62.647942 1.914012 6.208782 0
60.460541 -0.045375 7.483242 0
56.952133 -1.608374 6.308596 0
2.983832 6.752420 6.201521 0
2.746999 4.359179 8.138036 0
65.820808 1.940918 5.773634 0
62.009991 -4.509876 2.654059 0
60.214691 -7.432368 1.382872 0
53.406914 -5.329840 6.295980 0
65.035385 -7.151128 2.899128 0
43.460155 -12.187305 2.634570 0
63.994091 -12.531568 4.572199 0
56.849293 -16.821676 2.617611 0
55.511749 -21.848429 1.422715 0
50.391506 -23.121914 1.500364 0
56.013424 -27.020180 3.068918 0
19.526024 -35.917847 3.099232 0
55.901192 -35.134861 3.465025 0
11.396220 -44.237701 2.744300 0
19.499033 -44.960926 1.198571 0
21.999783 -43.715149 1.981514 0
10.703001 -44.428738 5.991907 0
55.342567 -46.414505 2.814026 0
18.359402 -53.365250 1.984565 0
54.707642 -52.157856 -0.459113 0
61.325268 -48.803238 2.529598 0
64.076805 -55.214203 1.998043 0
57.267765 -57.891041 -0.018083 0
61.075600 -59.226982 1.604140 0
62.763367 -57.369816 3.439577 0
55.984005 -61.172924 -0.335295 0
60.915634 -61.737457 -0.709473 0
52.973568 -60.495804 0.441338 0
59.621185 -63.310852 3.033067 0
49.536137 -60.834629 0.953009 0
50.382915 -68.762901 1.485605 0
12.824599 -71.274124 4.237561 0
6.517285 -74.211823 -2.006091 0
3.798397 -75.293213 1.191289 0
4.730886 -72.252708 2.632599 0
3.940522 -82.821144 0.281473 0
45.732475 -78.102310 1.350535 0
28.226892 -92.500931 0.966582 0
23.895435 -92.143707 0.265306 0
26.310955 -101.051514 0.853679 0
13.908681 73.193535 7.530276 0
20.539572 69.096451 5.349810 0
20.694767 66.506897 3.497606 0
29.870842 67.042847 7.658479 0
10.093768 64.186958 5.803598 0
24.721016 49.984325 7.990847 0
14.173359 48.384029 7.588823 0
42.626572 39.609459 4.824615 0
39.378750 41.089062 7.138224 0
3.633405 34.551586 5.531456 0
48.564137 33.689476 4.545747 0
2.529786 22.725153 5.517933 0
38.486610 22.818117 5.537650 0
2.500144 22.149710 9.306448 0
41.097710 10.989870 5.020651 0
43.284958 9.164124 3.195256 0
41.025494 7.212335 4.028865 0
46.886410 6.500576 6.805842 0
2.917494 1.230179 7.868767 0
3.225015 -2.332522 6.953452 0
42.949100 -3.844968 3.211484 0
44.447121 -5.160121 5.891810 0
58.088837 -6.260544 4.642128 0
46.593369 -7.198209 5.863470 0
60.143715 -8.977186 4.851425 0
51.159096 -9.351333 3.899194 0
46.018890 -13.647198 6.555238 0
44.840469 -16.011143 4.486767 0
41.314095 -20.062607 5.452291 0
11.943905 -25.029633 5.081776 0
13.918366 -27.470013 5.778451 0
47.501617 -25.714405 2.873550 0
26.017653 -34.241108 2.892440 0
23.875557 -37.691429 5.672638 0
62.476852 -37.545761 5.491525 0
53.650192 -36.769871 4.476394 0
59.144215 -34.910023 2.820868 0
69.169228 -40.079960 3.255906 0
14.116265 -45.525696 5.680112 0
12.662144 -48.037663 2.932633 0
58.138836 -47.556118 2.216023 0
59.877567 -52.341953 3.556585 0
51.780590 -55.868484 1.521529 0
8.728904 -62.861858 2.855968 0
39.610619 -65.421822 2.974139 0
53.049389 -70.527496 2.095430 0
8.407405 -73.572266 3.542925 0
46.491497 -73.921371 4.613815 0
51.016724 -76.338730 4.019200 0
18.092815 -93.376259 2.617985 0
32.346447 -98.770004 3.557433 0
18.630199 -105.036987 2.630246 0
16.958036 72.078125 7.058804 0
10.531162 69.323654 7.110063 0
29.155958 63.835636 8.912377 0
25.329664 56.401470 9.221753 0
39.264347 53.978626 6.104420 0
5.496474 55.634098 5.424663 0
9.373475 59.577087 7.063647 0
4.542653 58.697159 8.473396 0
42.782860 50.852139 4.242934 0
43.294468 56.537361 6.383548 0
44.877789 49.038418 5.606637 0
48.983189 49.852364 6.178734 0
7.007570 49.743698 8.372431 0
50.905003 42.557503 6.813396 0
57.290993 39.162243 8.572649 0
57.374992 35.702259 5.614681 0
54.669487 35.221088 3.934392 0
52.371651 33.139927 3.791127 0
44.949402 33.216667 5.373479 0
54.598885 30.725500 3.430982 0
48.985825 30.150330 8.236464 0
50.601322 28.045387 6.559129 0
54.918240 32.120995 8.476990 0
58.926716 28.274969 3.870732 0
56.974030 24.991066 3.536893 0
54.070957 23.106159 4.843995 0
2.663293 25.266741 8.237047 0
33.841667 24.276970 8.044579 0
32.953327 27.428852 7.139760 0
31.423714 29.010983 11.200573 0
31.438465 24.282181 12.945683 0
60.754555 26.267866 5.966236 0
2.647246 15.809748 9.461767 0
36.245903 21.033640 7.745874 0
56.140408 9.869082 2.983745 0
59.832703 15.984451 5.338439 0
58.414742 11.098505 7.544568 0
58.767834 7.982388 6.476905 0
56.097809 6.262338 4.762441 0
53.013203 7.136972 5.114284 0
62.103065 -4.108638 6.715387 0
57.141815 -9.895315 5.161628 0
44.676189 -10.058290 7.133603 0
4.348902 -11.275187 8.183849 0
5.304336 -14.349391 6.997635 0
68.202454 -11.130961 6.621186 0
66.000076 -14.077514 7.529893 0
61.178860 -16.187407 3.287277 0
40.292603 -14.804358 5.441851 0
8.054014 -20.046249 5.646894 0
37.915680 -20.562620 4.651594 0
47.208324 -28.670938 5.807790 0
51.079628 -24.653887 5.456761 0
18.338684 -33.033268 6.434834 0
21.956945 -34.316624 4.995214 0
45.335018 -36.412365 5.576522 0
70.157219 -37.280693 3.152923 0
19.830982 -43.181351 4.699210 0
67.382263 -45.549191 3.718258 0
21.706648 -49.773296 3.372869 0
24.216002 -48.176617 2.625076 0
18.437525 -47.675713 4.669713 0
11.798580 -52.196499 3.904130 0
13.491266 -52.899097 1.359056 0
11.882795 -56.677841 1.628627 0
11.817432 -59.897869 3.916458 0
5.831969 -64.436462 5.038026 0
44.266571 -66.727722 2.576042 0
43.796890 -64.994095 5.186797 0
48.222050 -67.286026 3.789924 0
57.683136 -66.625206 3.700593 0
42.942661 -70.690300 5.370380 0
55.458225 -69.833649 5.414491 0
52.490643 -73.209572 6.751729 0
5.652370 -81.027306 5.224276 0
38.320366 -81.922630 1.337121 0
23.800879 -95.936340 2.829444 0
24.664454 -89.429985 2.906161 0
31.632795 -92.828011 2.799944 0
23.285597 -102.964745 6.322590 0
16.186169 -101.258102 2.615937 0
19.420128 -103.133110 6.018529 0
20.035837 69.653229 8.827883 0
12.300116 67.056496 9.267455 0
26.341703 68.170586 8.031558 0
12.843929 61.534634 8.785613 0
6.496270 64.315170 9.651259 0
38.250481 61.979309 9.792911 0
4.683136 51.748383 8.740417 0
5.982049 54.859413 8.825786 0
47.160992 55.236305 9.944221 0
15.209040 42.856358 8.522763 0
54.497223 43.403347 8.912203 0
46.939026 40.628021 7.296771 0
3.219360 28.539106 8.501361 0
60.725925 31.008471 7.945545 0
50.162766 23.693026 6.365981 0
2.777954 13.568939 12.656009 0
3.076683 17.745316 13.576664 0
3.327950 22.261187 12.886850 0
2.426539 6.712835 12.066336 0
2.709156 9.439599 16.229795 0
46.644512 16.523962 4.444915 0
46.048595 19.775978 6.994453 0
52.309917 16.675579 4.877297 0
47.572021 12.739615 4.057417 0
53.849766 14.007743 6.474546 0
47.145378 10.522459 6.513562 0
42.971264 12.131343 8.013259 0
51.972813 11.497128 8.772398 0
39.153408 5.650175 6.976238 0
57.531773 4.341212 7.067151 0
47.085693 1.976920 6.795131 0
64.109001 -1.895788 7.720629 0
55.376236 -3.647693 9.081327 0
65.654449 -6.985814 6.262312 0
68.400581 -7.995417 8.575267 0
51.181839 -7.212965 6.900345 0
61.672729 -9.358005 8.316705 0
64.232201 -7.831542 9.015700 0
41.678799 -15.402536 10.162864 0
63.311871 -19.228649 4.096453 0
65.114395 -16.767925 4.414517 0
54.874626 -22.613386 5.662836 0
68.934929 -19.555790 2.978472 0
70.089973 -17.291351 8.073804 0
69.502182 -21.195660 7.763908 0
65.733513 -22.977352 3.753975 0
69.236343 -23.974098 3.890313 0
9.181779 -23.325966 8.709197 0
7.070360 -19.816603 9.346638 0
61.722843 -25.349169 5.927331 0
64.469734 -26.227503 4.276617 0
61.190701 -30.272774 6.045780 0
68.211235 -27.036341 2.673100 0
68.824341 -26.623833 5.973116 0
68.608391 -30.054388 6.164798 0
50.016777 -37.156197 4.356248 0
15.793967 -36.341232 9.388217 0
19.538975 -36.525513 8.187231 0
13.611681 -37.464977 5.354487 0
15.104949 -48.660416 7.945967 0
68.743752 -41.216209 7.091998 0
63.268452 -45.401154 3.561033 0
26.131388 -49.257812 5.078013 0
11.650791 -49.756016 6.632639 0
24.453409 -51.514641 3.722397 0
12.739638 -55.024567 5.348185 0
10.117439 -56.540192 5.847633 0
58.407673 -56.897518 4.710167 0
50.313980 -70.027779 4.261752 0
47.733379 -80.383430 3.231500 0
43.648037 -82.944351 1.752018 0
40.893299 -84.024002 2.260731 0
7.570853 -87.207062 2.117211 0
10.472788 -91.306679 3.256632 0
12.188271 -85.993340 3.707166 0
8.899492 -83.946648 3.839569 0
21.795927 -91.425400 5.742261 0
29.360659 -89.201309 2.689499 0
14.362389 -95.147354 3.605087 0
12.525422 -98.893997 1.110777 0
37.364841 -96.127640 6.643827 0
12.311270 -101.369759 3.095921 0
12.400210 -103.758484 5.231376 0
16.401762 -105.039032 6.004770 0
21.516819 67.166344 7.563930 0
43.690514 57.699554 11.200287 0
49.395214 52.254425 9.728277 0
27.962330 48.107620 8.198365 0
31.820644 49.342766 7.050113 0
50.792519 48.315880 8.787807 0
46.693802 45.543018 7.650839 0
11.691427 50.472607 8.596670 0
17.609978 45.736012 8.685025 0
49.446823 41.085682 9.539742 0
41.883183 38.834438 9.185935 0
5.491104 38.965691 8.751697 0
53.365826 34.120369 10.360051 0
42.869190 31.121031 10.104991 0
39.566193 32.953030 9.027066 0
34.032104 31.622416 10.545007 0
59.451092 33.978951 11.235203 0
60.987263 27.912292 8.732744 0
61.497105 24.547754 10.524264 0
53.933723 25.017439 10.947686 0
55.874763 18.255220 6.941618 0
39.115562 10.017121 8.170249 0
42.293736 8.591466 10.326933 0
60.787937 15.028560 9.937927 0
53.600227 3.811507 5.945894 0
59.810081 3.171891 10.176308 0
62.256783 8.055310 6.775918 0
51.163757 2.036082 8.032178 0
50.048267 5.951703 9.799650 0
53.774067 0.978377 8.729670 0
44.617184 -2.559649 7.882411 0
3.110193 -5.787176 10.499968 0
58.750896 -6.138628 9.314426 0
48.659649 -9.097836 6.517426 0
40.324078 -11.451571 6.486734 0
68.597687 -14.363869 9.120646 0
4.909814 -15.583690 12.312295 0
58.716888 -22.120829 6.063516 0
38.201195 -22.677841 8.637617 0
39.846226 -17.776133 10.099570 0
64.902275 -24.616602 8.659003 0
43.999493 -34.163597 6.854602 0
58.634396 -37.651398 5.601927 0
61.281052 -41.361687 7.609121 0
15.622677 -42.181438 6.887831 0
12.050253 -41.446026 8.205055 0
11.822096 -38.529942 7.375672 0
64.568039 -49.631905 4.704677 0
67.012741 -48.351234 6.468946 0
23.668291 -53.528938 6.061724 0
26.711725 -53.174019 4.766461 0
20.816763 -50.906700 7.508324 0
60.905758 -53.473392 6.324930 0
63.205662 -56.862663 6.374678 0
13.629769 -63.965263 5.833991 0
53.848759 -57.595348 4.993226 0
7.015735 -61.845432 7.060429 0
7.743185 -66.885620 5.083890 0
4.155950 -75.435661 7.596627 0
3.442776 -69.634254 6.079546 0
50.413391 -78.219635 7.465616 0
39.981735 -86.852318 2.991139 0
38.380558 -93.496780 4.257137 0
18.917673 71.125038 11.417561 0
18.827536 66.430519 10.447655 0
27.462519 67.939186 11.002596 0
20.502485 63.491203 7.687471 0
30.062525 64.479309 14.154905 0
30.375566 62.016308 11.653617 0
35.497856 53.186718 9.008829 0
35.608055 57.310814 9.601231 0
42.074196 60.030128 9.596869 0
40.298576 58.921658 12.757286 0
31.357372 45.633354 9.442243 0
9.046592 41.701935 9.262313 0
45.136505 42.924053 12.152824 0
55.647198 41.600574 11.352762 0
6.333342 36.321487 10.360121 0
4.412352 34.053150 9.439875 0
37.269707 31.690033 10.465890 0
46.000824 26.769878 7.719740 0
34.692398 20.259615 10.344873 0
44.499805 24.166767 7.849389 0
49.099434 25.141491 12.965082 0
49.048969 16.644365 9.887324 0
51.758583 17.098173 7.957757 0
34.501366 15.546339 9.527588 0
44.342155 6.271529 9.233171 0
37.858265 5.698131 10.668862 0
44.559193 4.071851 11.405760 0
3.697633 -8.616054 9.418550 0
54.594826 -11.323098 6.318749 0
55.539165 -14.381239 5.864237 0
52.302269 -16.701563 6.757277 0
58.336731 -13.172084 8.017861 0
36.529217 -16.598125 9.677381 0
38.717720 -13.296198 8.857380 0
35.985336 -19.529469 8.175941 0
11.220758 -25.734306 7.919283 0
68.896957 -27.486193 10.813173 0
14.727681 -29.663994 7.496671 0
65.550491 -32.982113 8.308565 0
68.417732 -33.752991 9.482608 0
53.758503 -39.784470 5.671188 0
45.922943 -40.563320 5.456660 0
23.346237 -46.707340 6.821362 0
68.073868 -45.587475 7.081335 0
65.445755 -51.204346 8.401638 0
27.670679 -56.422516 5.684841 0
30.035177 -54.100151 5.813098 0
30.620935 -51.465588 7.697319 0
7.986182 -56.663380 8.279039 0
11.219926 -60.021301 6.810164 0
12.452905 -62.042664 8.758504 0
61.147427 -59.248951 8.318162 0
53.427666 -54.584499 5.830022 0
41.735172 -65.348511 8.331492 0
46.353928 -67.706467 6.465712 0
10.011383 -67.823143 8.295179 0
52.199097 -65.521141 5.282621 0
39.864986 -67.438187 7.481943 0
46.076488 -81.596703 7.002614 0
41.013454 -85.713371 5.513229 0
38.943230 -79.999283 6.377561 0
10.201087 -80.118111 5.258534 0
15.034709 -84.276672 5.497495 0
37.018543 -83.625633 7.200779 0
41.199947 -89.363373 5.627725 0
33.193996 -92.595818 6.719547 0
21.885218 -93.746956 8.613640 0
9.356758 -95.201340 4.487493 0
13.148707 72.527069 13.298382 0
16.573078 73.041138 10.710129 0
24.193478 65.492882 11.809940 0
37.103634 54.868855 10.850165 0
45.170570 53.785942 13.118576 0
27.831657 51.387280 9.960298 0
15.589118 50.342674 11.164902 0
34.985977 47.993206 13.298725 0
29.503448 45.292953 15.866011 0
51.001465 47.087650 12.839619 0
49.196495 49.621334 15.509067 0
30.644260 48.595924 12.448076 0
48.492844 44.961601 11.462498 0
12.370702 39.370865 10.448414 0
52.975643 41.752003 14.646629 0
7.435140 41.226692 12.275297 0
13.686565 42.296265 11.486920 0
38.754063 39.267284 11.187363 0
42.315033 36.809322 15.085537 0
60.304684 28.310890 11.856427 0
39.560791 25.806049 9.386925 0
58.058578 24.006832 11.306322 0
41.731556 18.237894 9.839338 0
49.054649 19.951582 10.532733 0
58.052734 17.290171 9.866005 0
31.629045 14.710663 14.692047 0
36.526520 11.565506 10.917932 0
48.960472 9.579323 11.527724 0
56.423668 10.386075 11.386477 0
2.467007 0.276140 11.995907 0
60.003002 -2.551649 9.843969 0
53.876781 -6.698408 10.283274 0
55.463287 -9.569432 10.443118 0
65.456177 -9.929048 10.970557 0
45.832649 -8.089382 9.449865 0
49.785870 -8.469104 9.720497 0
54.102787 -12.033259 11.233989 0
47.118999 -10.736298 8.953310 0
61.366810 -11.512817 10.240809 0
57.484566 -15.715033 9.799137 0
57.227654 -26.910574 7.037473 0
53.655354 -27.551348 6.948832 0
51.677925 -32.175079 7.873262 0
55.688389 -30.123264 6.940162 0
48.755459 -33.345852 8.148046 0
61.002689 -34.605698 9.768564 0
56.970585 -32.818672 8.420629 0
57.456444 -36.284149 10.357682 0
11.717880 -27.889044 10.030321 0
15.647905 -32.379269 8.292253 0
51.635063 -43.902374 6.507834 0
46.486568 -43.700176 6.124742 0
64.327194 -41.577099 7.824742 0
57.908768 -41.543438 7.351968 0
19.510618 -45.043926 8.325541 0
17.440256 -50.038902 9.022694 0
65.374359 -48.676796 11.175863 0
62.660339 -54.752693 8.771908 0
30.254156 -59.145393 5.479518 0
31.015457 -57.029362 7.928761 0
48.931503 -56.825127 5.518588 0
61.401279 -57.455563 11.727621 0
64.842827 -51.910175 13.152285 0
50.938843 -55.494160 7.313766 0
46.729847 -55.963177 7.237164 0
49.858887 -61.674099 5.490582 0
29.141346 -62.087215 6.047841 0
48.486408 -61.019508 8.488943 0
4.931800 -62.399399 9.671899 0
50.613415 -63.808552 8.071935 0
53.055485 -69.895332 8.467860 0
9.619995 -70.748405 6.575850 0
42.829773 -82.264061 7.582156 0
12.437523 -79.533699 9.298265 0
42.394352 -85.726151 10.219853 0
13.229659 -91.054115 7.399004 0
12.650052 -94.047119 8.861815 0
14.478482 -90.097061 9.922604 0
28.427670 -89.946732 6.422246 0
30.789579 -88.614105 7.855255 0
26.644794 -91.848137 4.653416 0
27.057995 65.667397 13.869228 0
21.216110 61.409027 11.016325 0
7.278658 70.396507 13.124507 0
17.425924 61.363773 12.661043 0
4.409515 66.400879 12.893209 0
6.983490 58.684509 11.335504 0
5.177319 61.605438 13.337609 0
11.214271 55.044540 10.498734 0
38.690338 52.270802 14.238665 0
14.273270 52.949116 10.963582 0
16.055275 46.940891 11.660478 0
39.745911 40.546368 15.056711 0
4.209617 41.604580 12.510183 0
53.103722 37.053261 12.687680 0
4.520307 32.300179 12.175528 0
40.291763 23.163162 13.557001 0
45.852116 24.738655 13.988513 0
46.107540 19.929108 10.833345 0
54.860607 16.044476 12.032510 0
2.429237 3.904339 15.809679 0
2.742382 5.530270 19.954700 0
65.051201 9.328890 9.815661 0
61.736103 8.909144 10.436848 0
56.141781 5.960640 12.417684 0
64.556999 10.321160 15.647067 0
41.697151 4.487135 11.991905 0
43.066906 0.256198 11.538919 0
48.740620 -1.733329 8.904071 0
3.875211 -11.080189 11.815807 0
41.894436 -11.695780 11.613106 0
44.111256 -9.025551 12.846213 0
68.940376 -11.087460 11.357624 0
45.990452 -13.592131 10.804495 0
49.693497 -12.940436 12.756200 0
51.549797 -16.395491 13.151128 0
55.079967 -19.350441 10.742744 0
36.283268 -23.552320 10.875186 0
70.110405 -30.280664 10.883489 0
51.325603 -36.980930 9.087526 0
46.209202 -35.804840 9.843552 0
47.043335 -39.761612 9.016908 0
64.332733 -34.689873 10.391042 0
61.991486 -35.987888 12.992120 0
68.111465 -35.979355 11.328123 0
8.607677 -40.496658 9.028297 0
55.456646 -43.162399 7.463193 0
45.406509 -43.023098 9.584188 0
54.402260 -46.452896 8.577535 0
48.639690 -44.721523 8.897411 0
51.271618 -46.455967 10.079900 0
21.292519 -46.471973 10.178229 0
24.527401 -48.679111 10.221137 0
16.005684 -53.123474 9.383397 0
20.472395 -58.386265 6.163152 0
17.508928 -57.526703 6.778997 0
57.813641 -58.297894 9.407120 0
18.305544 -61.287479 8.121597 0
25.283661 -62.289841 6.917681 0
22.432034 -64.694572 7.455183 0
43.800480 -59.242512 10.074892 0
10.218691 -61.509956 11.201611 0
38.942509 -71.233467 9.846332 0
41.472939 -73.048325 8.864977 0
47.019142 -71.385345 9.564313 0
45.016121 -75.356499 7.742645 0
50.939484 -74.709312 11.468467 0
48.233540 -78.261597 10.105127 0
44.701160 -76.447052 12.049759 0
7.102427 -75.566422 7.809302 0
45.242245 -82.345863 11.147919 0
15.786818 -86.674980 9.422558 0
38.716293 -88.333450 8.243221 0
24.445034 -93.413193 6.750736 0
28.781786 -93.997902 5.702501 0
29.387442 -91.021675 10.812981 0
8.574821 -92.629578 6.282089 0
26.800955 -97.017769 4.931305 0
23.617630 -98.368805 9.567247 0
27.919964 -100.104881 5.982578 0
31.364025 -99.199921 8.009445 0
31.318295 -94.367630 8.686193 0
8.458284 -96.044769 7.359717 0
20.862789 -99.538170 13.191163 0
9.913345 72.009041 14.793404 0
22.969881 59.925068 13.636994 0
15.142465 65.232948 13.963245 0
11.847194 57.647457 14.358643 0
9.503926 59.681667 13.766655 0
12.033272 54.462860 13.746426 0
30.460169 54.034157 11.077391 0
32.315826 56.505547 12.293097 0
32.877926 52.702957 13.531751 0
32.840958 59.669983 12.781265 0
47.917248 39.552994 11.988455 0
4.832826 37.951450 14.785877 0
7.313415 33.829601 14.488559 0
58.431828 34.567955 14.584052 0
35.469543 28.568745 11.763961 0
32.849705 19.669407 13.629025 0
55.908405 24.623337 13.447742 0
62.191837 22.707850 13.345717 0
51.637791 14.795986 13.954889 0
39.223251 14.353497 12.599094 0
61.144726 14.352354 13.742656 0
40.440777 8.905120 14.013055 0
46.394989 9.294614 14.330443 0
66.906532 6.415872 11.661527 0
48.784225 3.171890 10.643645 0
58.041245 1.120555 12.005188 0
40.384838 -2.216673 8.756064 0
39.576515 -1.449945 11.660831 0
53.014427 -1.930279 12.624378 0
48.987038 -3.976182 12.024155 0
44.116791 -3.062674 12.688723 0
47.642776 0.330174 12.534473 0
61.870316 -14.647491 10.980640 0
37.110844 -14.949075 12.539334 0
67.968887 -13.196270 13.140553 0
70.103241 -17.180616 11.478570 0
34.938374 -18.854242 11.012464 0
34.203026 -24.114035 14.079153 0
38.297375 -20.322643 12.808083 0
47.374840 -20.329811 13.122619 0
49.592834 -18.548714 11.764470 0
48.630928 -17.606440 14.404704 0
47.145470 -22.914465 8.314842 0
65.247505 -28.531691 11.281961 0
10.751602 -38.057907 13.036058 0
13.126740 -44.742336 12.071866 0
58.171124 -47.524815 8.761133 0
46.431488 -44.609291 12.785263 0
65.767151 -45.165020 9.034893 0
25.063650 -51.732456 10.942117 0
21.596891 -48.066093 12.596942 0
13.932565 -55.226906 9.477128 0
11.506416 -56.384396 11.460441 0
7.868036 -56.664303 12.262288 0
53.720573 -57.381203 10.225321 0
30.369741 -55.409424 12.075081 0
30.842337 -60.068691 10.869398 0
28.868425 -58.092087 12.859585 0
29.233349 -61.276314 13.356306 0
30.793858 -62.917282 8.561569 0
19.345375 -64.500847 8.280172 0
29.708389 -66.321815 7.991004 0
49.571293 -62.152557 11.902616 0
26.298595 -65.863686 6.883413 0
27.637867 -68.846680 6.814506 0
25.639025 -73.128723 6.974364 0
28.114780 -71.713753 8.329136 0
20.327234 -70.181129 6.845300 0
22.720615 -72.591843 6.549412 0
7.457638 -67.004814 10.492103 0
3.698247 -67.442879 9.760614 0
22.911686 -75.923965 6.557446 0
18.933302 -67.516701 8.249862 0
18.025734 -77.601105 6.603463 0
53.335938 -73.389046 10.036643 0
16.013170 -72.460342 8.383824 0
13.814256 -75.354675 8.156929 0
20.475657 -81.234795 8.148602 0
26.122286 -75.310020 9.112110 0
23.939898 -77.361046 9.442071 0
17.282108 -79.898422 8.484612 0
19.615349 -81.739189 11.970552 0
14.483106 -83.127472 9.524113 0
33.956738 -81.520828 8.980793 0
32.685276 -85.328949 6.504914 0
6.185030 -91.943352 8.547694 0
9.275263 -89.931725 7.948194 0
33.839390 -89.040588 7.383698 0
25.035440 -101.568207 8.687515 0
29.120550 -100.833145 10.429055 0
17.397726 -100.014603 6.521119 0
12.912472 -102.332848 9.891282 0
32.700817 62.608768 16.130735 0
5.862834 63.189026 15.810384 0
41.373230 56.410561 14.262879 0
10.130901 60.364971 16.804544 0
35.807514 58.052021 14.754225 0
42.290005 50.964245 11.189997 0
40.663254 48.628647 12.955203 0
34.484135 45.490074 16.016586 0
12.044952 46.519791 11.950961 0
4.777892 42.178959 16.468199 0
15.455993 40.701233 15.756231 0
13.436659 43.363483 16.878222 0
9.555317 40.238895 16.381670 0
13.366139 38.670826 16.182367 0
47.570301 38.635818 15.862428 0
37.793396 37.568943 14.993377 0
7.050682 30.981380 17.520615 0
36.466133 24.137547 13.421324 0
4.064870 28.953510 12.590769 0
3.786644 25.995344 13.129080 0
53.094101 25.081802 14.691831 0
49.129974 22.109720 17.462725 0
52.654526 23.357193 17.860590 0
52.039433 20.001917 12.490255 0
39.320152 17.714457 13.546879 0
34.592926 10.539730 13.986120 0
61.145069 8.846303 14.539664 0
66.706161 3.025875 13.226728 0
63.006203 3.417764 13.077650 0
55.598743 -0.618463 13.269403 0
37.847137 -1.171896 14.117246 0
39.793404 1.442111 14.669134 0
37.554882 1.962222 18.617634 0
3.155030 -9.063770 15.578021 0
3.810682 -13.321596 16.062199 0
40.256550 -18.241301 14.191418 0
52.133358 -23.987513 14.634059 0
42.355995 -26.680885 10.695379 0
45.908207 -26.371719 10.498425 0
64.619797 -24.883913 12.732380 0
9.611516 -26.146606 11.889411 0
62.277615 -27.615746 10.816370 0
50.744003 -39.839520 9.556025 0
62.944138 -46.583687 9.346269 0
58.800510 -50.886192 9.658926 0
54.852604 -50.823727 9.173481 0
51.178150 -48.193752 12.628241 0
57.040726 -55.608551 14.188789 0
48.190502 -56.261475 12.176692 0
42.949402 -55.976826 10.184199 0
14.487264 -60.594646 11.438415 0
7.045294 -60.062042 12.931491 0
46.833012 -61.320667 11.260456 0
3.431822 -64.750465 13.843871 0
28.168289 -68.624512 12.599377 0
29.016140 -64.990501 13.635995 0
15.536280 -69.363243 9.774123 0
4.473992 -73.193703 9.559489 0
3.163595 -70.747574 13.393929 0
10.475235 -73.804749 9.777267 0
40.250908 -73.412796 14.335009 0
37.571392 -83.409798 11.858438 0
15.935731 -85.559731 12.207281 0
6.871694 -86.718826 7.186359 0
5.265089 -82.314041 9.907928 0
10.408854 -86.058823 8.575445 0
11.355318 -92.331367 12.128704 0
9.356185 -82.341148 10.723753 0
12.020373 -85.949982 11.325770 0
37.786640 -92.448151 8.125913 0
7.145464 -94.765266 11.028973 0
33.792652 -93.257866 10.597637 0
10.432323 -100.113281 11.636144 0
16.205730 -97.862358 9.211592 0
21.585838 -102.466400 9.588691 0
12.404379 68.646133 16.436558 0
23.501554 60.843311 16.797085 0
38.173340 47.285259 14.164867 0
51.442692 47.518337 16.641409 0
6.142643 47.947914 13.353251 0
8.940977 49.930908 12.878247 0
8.749945 45.461269 12.548071 0
6.284042 52.376629 13.903528 0
11.133121 43.926220 14.017025 0
49.281796 44.550632 16.423279 0
44.798611 42.651024 16.281937 0
54.903259 30.873087 15.763673 0
34.733105 22.270523 17.276421 0
62.777779 25.680052 15.374941 0
42.584690 19.175123 14.132229 0
57.806187 15.614804 14.318752 0
61.095924 13.884150 17.306396 0
59.386074 14.132083 19.955774 0
54.152340 14.993358 17.321795 0
48.645916 15.452430 15.903887 0
34.827568 5.636022 16.011135 0
46.607178 6.032799 14.069564 0
66.532654 7.874159 15.628096 0
36.023102 -3.691138 13.411814 0
2.440104 -2.119314 14.767670 0
40.290291 -7.235396 12.965569 0
42.091015 -11.287166 15.627087 0
67.038101 -16.543135 13.582199 0
35.261105 -17.865808 14.256418 0
61.646107 -19.103743 11.472532 0
67.137459 -21.277193 13.677670 0
6.158416 -21.121153 14.767536 0
7.720996 -22.553726 11.574931 0
48.335453 -26.814663 14.789607 0
44.451626 -22.563383 14.815225 0
45.043648 -28.933693 14.190784 0
60.637436 -26.333736 14.360280 0
60.631977 -30.396357 13.570928 0
13.499220 -31.126045 9.918667 0
6.569073 -40.222801 11.123392 0
3.367674 -43.409725 12.872861 0
54.325054 -39.193295 14.035355 0
45.335659 -40.747646 13.522402 0
50.781597 -40.486637 14.494686 0
56.553478 -52.688049 15.404681 0
61.349552 -53.730915 14.541508 0
15.660313 -63.711399 10.962754 0
52.640305 -62.126968 11.942501 0
51.640858 -60.685753 15.603067 0
46.564049 -60.537273 15.579298 0
56.254959 -61.525688 12.423960 0
56.903225 -64.650345 9.418464 0
55.083519 -68.883347 12.180914 0
41.268955 -69.026413 11.765476 0
11.841015 -70.438179 11.732393 0
23.736929 -74.005417 12.837823 0
53.563793 -73.006294 13.494763 0
8.970434 -71.001808 11.918923 0
20.938555 -77.484787 12.706340 0
5.905059 -86.527550 10.069071 0
33.875645 -85.904510 10.226011 0
5.882125 -91.392517 12.203069 0
34.621479 -96.048828 11.138927 0
13.572937 -98.706718 11.996367 0
16.001921 -103.196564 12.159529 0
7.560992 70.758774 17.672834 0
13.552772 69.387093 20.247911 0
15.478574 69.476540 17.625284 0
19.205294 64.978638 14.719136 0
32.927860 55.538586 15.888604 0
3.651194 50.736320 15.309217 0
8.625124 54.433247 14.325423 0
3.836674 54.966721 15.438345 0
3.944195 48.615612 20.067045 0
4.936525 29.327103 16.252645 0
56.886135 23.139730 17.150845 0
63.759907 21.051601 16.647020 0
56.305111 20.420755 14.871759 0
45.535599 19.890541 14.441592 0
45.521290 21.150812 17.871651 0
40.062496 20.591270 17.552881 0
55.281799 18.811819 17.371265 0
51.545120 17.530397 17.404123 0
35.923401 15.580663 15.926037 0
54.639503 10.057044 14.966432 0
58.559792 0.989576 17.537884 0
61.147156 1.862701 15.567572 0
2.635451 -5.911562 17.740564 0
35.847454 -6.932001 13.135932 0
44.450390 -18.045265 15.313024 0
33.688519 -21.271172 15.054343 0
58.204842 -21.288586 13.113885 0
61.401852 -23.099823 15.216815 0
57.927494 -26.006769 16.185589 0
65.080818 -23.604696 15.358510 0
7.726406 -24.455189 13.805357 0
10.158413 -30.468298 13.356366 0
41.971462 -31.296307 14.679007 0
68.571419 -33.463715 14.322941 0
68.016716 -40.052330 12.385193 0
65.485023 -38.356041 11.522627 0
11.074469 -34.055195 12.991504 0
57.861874 -37.126781 13.841586 0
8.669428 -46.430698 11.383332 0
6.112127 -45.979843 13.069325 0
12.173129 -48.632935 11.505962 0
15.976926 -47.344158 14.931760 0
44.612053 -42.958477 17.811188 0
54.429302 -50.637131 14.327172 0
26.105394 -60.080898 10.472662 0
20.997103 -60.900940 10.988769 0
19.574064 -55.975971 10.837976 0
11.185776 -58.765217 14.051699 0
21.000057 -51.500385 12.041176 0
40.405209 -52.733147 13.866120 0
43.862228 -51.930035 12.956342 0
41.106709 -57.524731 13.560423 0
43.678802 -59.011333 13.028432 0
27.393040 -64.104538 10.451279 0
24.540939 -64.841454 10.619513 0
12.128678 -61.846695 13.838804 0
25.567354 -68.053406 9.844906 0
59.228512 -62.681206 12.959707 0
58.335014 -60.535954 15.075539 0
11.841794 -65.238434 12.176630 0
21.215569 -66.924202 12.962607 0
46.533489 -72.845039 14.016103 0
18.213936 -70.811951 12.344732 0
18.772911 -75.216888 9.539199 0
22.145903 -71.278755 10.090935 0
42.311794 -68.422829 16.881277 0
17.246674 -72.883980 14.896637 0
50.714684 -72.574265 14.766615 0
15.962875 -81.807190 12.952472 0
34.242329 -82.909447 12.173326 0
5.705979 -84.619522 13.621187 0
7.370357 -87.125015 12.560922 0
13.691377 -87.073311 13.852407 0
6.080467 -89.935303 17.382984 0
15.721594 -95.873894 11.518563 0
15.559525 -99.666634 12.702384 0
30.703146 -97.075363 14.739426 0
19.775673 68.920563 16.582905 0
23.484173 66.093269 16.931570 0
27.763582 60.311214 16.449001 0
35.533211 59.460014 18.758263 0
4.261207 58.400700 17.552011 0
4.034226 52.378494 17.756313 0
10.331795 46.067356 17.723368 0
39.197186 48.116467 16.770615 0
3.375136 36.273159 21.244261 0
55.476963 38.546867 18.049915 0
60.302944 29.139383 16.203747 0
4.016565 20.541948 16.927717 0
4.039803 23.169336 15.561745 0
33.432190 17.370234 16.958174 0
59.893715 20.258560 15.474325 0
36.337242 18.879248 17.396467 0
35.892063 12.330512 16.118162 0
36.662849 9.133810 16.265652 0
46.207981 2.506108 15.474904 0
66.781746 4.211257 16.440123 0
65.351379 -1.188465 14.840340 0
67.250427 0.707343 18.948969 0
55.080383 -1.039390 18.876385 0
49.617039 -3.623343 15.472459 0
33.990532 -7.029830 16.293617 0
38.703800 -20.912262 16.699709 0
35.200829 -17.622522 17.610788 0
42.836605 -25.141541 13.405313 0
58.694893 -28.791950 15.288414 0
39.515923 -29.103693 13.901730 0
68.576431 -28.165371 17.406063 0
7.399331 -40.559029 16.733673 0
63.135403 -40.138718 11.700089 0
65.021179 -45.371853 14.036267 0
9.164383 -48.906273 13.409137 0
11.185652 -51.712578 11.826942 0
15.522616 -51.349384 13.602982 0
17.803265 -54.121037 13.310121 0
52.242092 -50.677502 16.394365 0
17.355881 -58.602886 14.332450 0
14.797184 -55.473389 14.782259 0
51.599495 -54.168941 14.600085 0
8.924598 -59.935547 16.275030 0
9.874510 -68.573326 13.412785 0
39.647362 -69.518646 14.855090 0
14.163371 -76.148872 11.721491 0
16.890694 -77.528000 12.751762 0
8.435409 -78.758064 13.466381 0
5.016732 -76.755707 12.991435 0
5.151368 -81.667862 14.736675 0
14.187737 -84.429138 17.223532 0
35.256218 -84.255127 14.831312 0
43.088993 -84.255806 13.182372 0
40.459534 -87.640923 14.797006 0
37.465168 -91.430817 12.500876 0
7.680644 -95.248703 14.357215 0
10.601041 -97.934067 15.927423 0
13.895051 -96.326721 14.048775 0
23.457699 -101.964516 12.302210 0
33.812119 -94.207741 15.004777 0
26.207628 -101.220108 14.367832 0
5.484199 66.535423 18.675989 0
6.125188 69.206917 21.548313 0
6.700864 63.810757 19.562126 0
33.021572 61.245239 19.810032 0
5.842090 60.944733 19.279821 0
29.806774 55.374073 16.868174 0
28.019871 52.625507 19.525475 0
27.971689 49.610867 16.194195 0
26.996046 54.104321 16.270275 0
25.025942 52.725910 19.925198 0
47.677380 41.935863 19.461641 0
50.752590 44.723682 20.272289 0
7.250611 39.786209 20.157665 0
43.177757 39.108772 18.980686 0
52.313076 40.445965 17.834866 0
14.618541 36.823883 18.969660 0
38.837410 35.458473 18.193056 0
54.878628 34.969818 20.565191 0
53.415874 17.888256 22.066740 0
57.359566 18.210213 22.015329 0
62.452564 18.143709 19.936289 0
58.628769 11.959038 17.336910 0
40.278019 6.540959 17.206511 0
51.773808 7.280621 17.599943 0
42.259342 0.644883 18.712528 0
2.523590 0.239963 18.811625 0
35.692455 -2.368531 16.310247 0
50.308834 -3.491527 20.767630 0
45.982395 -3.809602 19.065517 0
62.704063 -6.007621 13.545449 0
59.042553 -7.692245 14.456614 0
58.389160 -4.817717 15.289942 0
53.163040 -8.032564 14.875021 0
57.789005 -10.365826 16.970646 0
65.412010 -4.701114 17.593897 0
67.048080 -9.071175 15.250652 0
68.307938 -3.252982 19.293468 0
60.722675 -11.776052 14.989479 0
63.959019 -12.114992 16.451536 0
4.575736 -17.197208 16.529625 0
38.042610 -14.450856 17.654552 0
42.126347 -25.456245 16.336138 0
47.309219 -33.046257 16.466251 0
50.138283 -29.722816 15.713060 0
8.995780 -36.495510 15.367061 0
66.977768 -37.477459 15.889818 0
59.705051 -40.877792 12.692557 0
60.996418 -45.686588 13.726592 0
54.603127 -43.854767 12.894011 0
57.190952 -46.862835 13.233978 0
44.608990 -48.392555 21.840351 0
48.070587 -49.229286 17.466970 0
54.152027 -45.884823 15.698662 0
6.786389 -47.980694 16.680220 0
11.194707 -49.560436 16.551949 0
13.387290 -56.812263 17.475897 0
20.800045 -58.010906 14.154381 0
20.283039 -63.940857 15.603392 0
46.805222 -61.254990 19.477644 0
59.043751 -62.771107 17.209589 0
9.798584 -64.273918 14.553111 0
58.611279 -65.221306 14.569420 0
16.027742 -68.532349 12.861424 0
16.854536 -65.875595 14.181536 0
11.186254 -81.618439 14.115034 0
16.244331 -93.697052 15.025480 0
22.926287 68.455437 22.016264 0
25.452671 67.347404 20.733110 0
27.488111 65.148537 19.322050 0
31.373245 59.850075 22.467590 0
7.594657 54.676582 19.376740 0
25.495892 55.987305 20.759176 0
45.834568 48.203453 18.063128 0
11.509718 38.175060 19.067131 0
52.990997 38.401169 19.901472 0
42.262493 32.622704 20.708584 0
52.317261 32.685680 20.689596 0
5.197106 26.344437 17.840349 0
53.186916 29.655502 19.342291 0
57.919403 30.455038 18.220984 0
60.369125 28.421997 21.450686 0
49.937805 15.065745 20.136709 0
52.831913 9.909448 18.619045 0
65.170761 10.546656 19.782850 0
65.238937 7.005199 18.432449 0
61.872673 9.652782 18.279982 0
40.984047 3.750423 18.797825 0
42.928146 4.974074 17.026564 0
52.645298 4.701454 20.035357 0
61.501549 -3.733926 18.978464 0
41.161602 -4.035162 15.271151 0
39.115150 -1.049525 19.773668 0
37.730148 -4.016076 18.025135 0
40.254967 -5.752778 18.121050 0
37.971016 -10.853964 19.081545 0
55.431580 -11.541372 20.348738 0
69.222198 -8.406876 17.993349 0
41.802792 -21.110090 16.872540 0
7.324958 -26.832678 16.021555 0
58.167698 -32.613228 17.224230 0
61.290756 -30.787134 17.353760 0
7.174791 -36.864738 17.997723 0
64.843277 -34.746418 17.192421 0
67.488762 -40.704380 18.355310 0
51.487865 -44.301994 16.427696 0
65.765518 -42.648071 19.699129 0
58.729588 -46.460102 16.380009 0
54.403358 -46.825714 19.104141 0
43.810211 -52.260403 17.206949 0
11.889375 -54.327705 15.737448 0
37.960354 -53.974808 17.495865 0
21.610321 -60.248802 16.462683 0
20.795715 -56.381073 16.784248 0
6.214912 -61.558277 16.986696 0
6.682302 -68.224777 15.425457 0
9.290934 -73.154274 15.159873 0
14.081469 -73.849831 14.371922 0
40.895130 -71.530922 18.063114 0
4.912261 -72.178032 17.784416 0
4.216568 -74.336548 20.957767 0
9.532552 -77.169342 16.659342 0
11.931547 -78.544418 17.690039 0
17.396708 -80.371933 18.607761 0
19.538736 -80.757141 15.251506 0
41.019043 -80.764374 14.067318 0
43.591347 -85.290001 15.898219 0
27.903936 -96.933281 12.566186 0
26.972885 -97.270508 18.523514 0
10.829813 70.474785 20.898861 0
16.577236 66.269722 20.007936 0
5.323084 63.707954 23.836756 0
30.652672 63.084877 21.265762 0
6.069995 50.789772 21.473618 0
31.856918 50.514427 17.908752 0
34.486664 53.547478 18.862253 0
32.736698 53.449284 21.208199 0
38.005600 54.253735 19.259659 0
40.634773 47.718536 20.602737 0
40.401585 51.377903 21.248274 0
49.980728 47.567741 20.635397 0
46.456551 49.647190 20.836754 0
47.959400 39.421276 21.641577 0
49.499092 35.156445 18.478922 0
46.130787 32.884712 18.225880 0
62.530460 24.579584 19.247002 0
57.047031 11.314075 19.771021 0
54.297516 10.230551 21.699469 0
35.364693 -5.802660 19.012766 0
56.155441 -4.241366 19.937080 0
35.655441 -9.174623 19.862314 0
68.484238 -11.774753 17.932344 0
48.832573 -12.765577 18.673756 0
49.065689 -8.530131 16.044722 0
35.858067 -13.450681 22.294804 0
36.872486 -10.269482 22.666325 0
58.879635 -17.017164 16.153364 0
53.623077 -17.670218 16.520420 0
55.774628 -13.859707 17.935953 0
55.950356 -19.416031 18.793146 0
59.473423 -19.129534 18.215355 0
63.111416 -18.904379 18.592789 0
62.810478 -13.882582 18.896898 0
31.889774 -24.236906 17.824839 0
38.905720 -24.837679 19.489082 0
53.223526 -29.262522 15.768588 0
56.007706 -30.249235 16.465651 0
64.095428 -29.279760 19.434393 0
53.660622 -31.278952 17.927637 0
39.737026 -33.153866 17.773060 0
43.577347 -33.253288 16.185135 0
42.372250 -35.364090 19.143311 0
5.290667 -43.389095 19.100613 0
58.157925 -41.903648 16.771252 0
61.351906 -41.465965 16.521709 0
7.303874 -51.044117 16.712807 0
41.600349 -60.260475 18.271301 0
49.674717 -62.625530 19.782330 0
54.054508 -61.739964 17.632351 0
4.538663 -65.156326 17.205839 0
7.336806 -64.845772 16.193125 0
18.208443 -61.401512 17.924950 0
13.965067 -66.707954 14.231332 0
13.863888 -63.064072 15.956810 0
57.732819 -66.003021 19.829985 0
13.028055 -70.899590 16.519663 0
51.100124 -68.923859 14.342155 0
14.472245 -74.180588 18.014708 0
40.483906 -77.192612 15.645111 0
14.696404 -79.843643 19.672234 0
4.795572 -78.486534 17.940838 0
9.043940 -80.735275 19.727570 0
12.820188 -81.848534 17.226000 0
8.927749 -87.777840 15.711445 0
36.999001 -89.978752 16.782890 0
25.258018 -93.278694 14.140146 0
28.274734 -93.726616 14.847869 0
30.760454 -94.825874 17.001162 0
30.103544 -92.176819 17.984354 0
8.828770 -94.008080 17.609510 0
13.542418 -93.973724 16.137764 0
15.761585 -92.348648 18.434750 0
14.780645 -96.852066 16.828367 0
13.737943 -100.941963 17.349075 0
22.345646 -102.088486 15.759118 0
19.950878 68.613113 24.166636 0
18.522234 68.180702 21.119314 0
16.595007 68.855446 24.532944 0
26.943842 63.073940 22.901379 0
36.252979 55.940872 20.893452 0
11.009527 51.867092 19.636267 0
36.827477 57.528503 24.338652 0
4.259518 48.884823 23.454863 0
13.072807 42.657490 19.975784 0
15.469739 40.217171 21.500450 0
12.027357 41.652668 23.946539 0
15.387504 36.438728 22.474890 0
48.375324 31.488970 20.289778 0
45.146980 30.794336 20.115425 0
52.092957 29.002333 21.996923 0
48.496716 28.136278 23.380341 0
6.877542 28.654177 19.833708 0
3.638972 16.805923 17.168444 0
56.267036 14.578814 23.210176 0
59.026329 12.725859 23.066656 0
54.159779 16.486649 25.645884 0
49.322968 8.888914 20.743052 0
61.815331 3.737536 21.363171 0
65.594467 1.083586 22.143688 0
57.947304 -0.957513 19.650732 0
2.723577 -3.255339 21.308294 0
52.108391 -6.345541 21.036694 0
46.780289 -8.955449 18.529917 0
3.316692 -11.939023 19.071163 0
2.976042 -8.792698 19.536226 0
52.234097 -11.586093 19.075686 0
52.425034 -20.565460 18.522078 0
49.629658 -20.085918 17.876060 0
5.942047 -27.069204 18.581472 0
4.901523 -21.727234 19.927992 0
33.631359 -18.813643 22.776306 0
31.573679 -24.767031 22.033960 0
37.037262 -27.049053 19.954943 0
6.842702 -30.259581 17.590693 0
5.588751 -33.366501 20.450747 0
37.152920 -30.292828 20.755690 0
5.096461 -32.914333 23.513657 0
4.933673 -30.241503 21.606359 0
67.117813 -35.202297 20.694302 0
61.435181 -40.525211 19.654984 0
62.444672 -47.799362 19.432159 0
44.709858 -56.133514 17.891357 0
39.108913 -53.090462 20.425882 0
10.683526 -63.926167 18.063568 0
10.258617 -68.124855 16.619230 0
53.957642 -70.159698 18.830322 0
47.696930 -68.032700 16.322931 0
12.109651 -74.630249 20.628361 0
7.093946 -84.704514 17.265457 0
38.498257 -84.585518 15.902015 0
24.369638 -88.674690 15.549919 0
23.459047 -91.072151 17.453766 0
33.865322 -90.955956 17.793619 0
28.067762 -94.356850 20.752016 0
19.185902 -101.637299 17.411757 0
13.911193 62.028320 20.898571 0
8.587531 60.907200 23.649822 0
10.457206 67.780060 22.281763 0
11.162902 52.596519 23.994524 0
6.265839 45.197731 22.338774 0
10.201947 44.161831 20.842457 0
5.176622 43.981899 25.686220 0
49.621387 41.612461 24.693649 0
3.586691 32.665150 21.995888 0
43.151711 29.365824 22.462982 0
3.640627 30.332655 24.014484 0
61.730556 22.251879 22.215153 0
3.435360 14.295231 18.703224 0
65.044426 9.280233 25.683792 0
3.815197 -16.102575 20.404539 0
51.640087 -14.933504 22.612833 0
62.713417 -10.674744 21.331020 0
51.591915 -16.890316 20.339481 0
51.124859 -24.674566 19.667086 0
54.434078 -21.353376 21.754080 0
46.881359 -22.546787 18.341614 0
59.339813 -21.695251 21.727850 0
66.949432 -31.222303 22.217367 0
40.460781 -34.462181 22.411205 0
41.545509 -30.390749 20.582966 0
49.762924 -33.479301 22.086910 0
54.024300 -33.605156 22.627750 0
56.519859 -32.691109 21.286495 0
59.360958 -31.899258 21.904942 0
45.678661 -35.055687 23.273449 0
7.528274 -46.994255 21.378199 0
11.626554 -50.979115 20.287136 0
7.291618 -54.450809 17.407801 0
45.482292 -51.726784 21.978886 0
16.987360 -53.710114 20.517935 0
17.191450 -60.180626 21.277248 0
13.265838 -61.761356 19.017103 0
7.708838 -69.060417 19.482464 0
48.117367 -77.988129 17.553682 0
45.237820 -76.369667 16.889202 0
37.191624 -84.035934 19.136011 0
41.626968 -86.400848 20.112810 0
8.658014 -88.216324 19.012302 0
6.217391 -89.984894 21.603456 0
11.510112 -92.845886 18.462013 0
7.943368 -94.087288 21.051794 0
23.667330 65.389847 22.421633 0
23.893366 60.340740 22.094349 0
19.630554 61.677841 21.216816 0
11.732915 59.835842 23.576124 0
19.943605 57.038643 20.990425 0
26.739246 58.800415 22.595402 0
21.024891 53.067135 22.104504 0
23.217966 48.484634 21.501486 0
12.191648 49.851891 22.549917 0
28.953457 50.218941 21.056883 0
27.102804 45.357262 21.360989 0
30.232258 45.277908 21.216362 0
46.988426 47.867203 24.733377 0
47.174206 35.302124 21.926708 0
11.529815 34.980103 20.977638 0
13.129681 32.478310 21.733486 0
57.430943 31.259436 22.582642 0
7.341791 24.789814 23.099604 0
4.616786 19.446751 19.856194 0
58.953568 17.964951 25.614752 0
48.207485 4.324629 22.614323 0
37.770042 -7.130390 22.784176 0
41.104931 -6.722529 22.734028 0
43.511848 -5.370887 21.510204 0
67.506935 -6.169278 22.290426 0
69.366402 -10.122804 23.321882 0
44.834663 -13.366883 22.255423 0
46.408508 -15.323169 18.458714 0
43.993343 -9.627388 22.186808 0
62.443348 -16.771601 20.884335 0
46.613976 -26.007988 21.776003 0
43.756435 -23.740196 22.213024 0
34.775940 -27.654066 22.899813 0
41.625019 -27.645218 24.121017 0
6.190670 -40.637310 20.997189 0
57.814472 -39.965050 20.593256 0
48.608974 -45.752102 20.506126 0
54.587414 -41.923393 21.436838 0
57.566467 -44.319794 21.058102 0
14.543472 -50.384945 20.635160 0
5.044272 -53.387459 23.023378 0
37.984600 -56.087902 22.372770 0
23.229916 -54.229549 21.980305 0
21.239008 -53.715809 18.790501 0
39.280190 -58.139301 20.426233 0
20.597956 -58.620636 22.117186 0
10.175856 -67.534500 20.780888 0
48.391228 -70.877258 20.868093 0
46.083603 -71.809067 19.016542 0
32.316433 -75.704903 16.981363 0
35.943794 -76.514076 20.604786 0
33.822704 -74.080498 18.968056 0
5.094006 -77.913071 23.736549 0
29.799194 -74.279854 19.083797 0
29.161442 -72.122856 21.988810 0
29.259014 -80.358673 16.367798 0
29.123779 -78.280602 20.349270 0
26.597408 -84.456200 16.517323 0
31.363619 -82.897827 18.551176 0
45.248104 -82.506119 20.956553 0
29.268213 -82.733261 22.411366 0
26.259048 -84.982658 20.561285 0
30.630098 -88.553032 21.102074 0
22.843279 -87.614449 24.078362 0
27.594152 -89.658646 17.497244 0
23.391508 -89.609955 20.023895 0
23.561382 -99.529732 18.704174 0
19.436815 -97.599731 19.494951 0
14.745975 65.882416 23.713327 0
11.964738 64.603020 25.620712 0
20.284735 64.797920 25.488541 0
5.156527 54.950474 24.417824 0
22.794313 58.072372 25.870722 0
9.337874 49.285267 24.722231 0
33.898762 48.483246 23.028618 0
43.491314 52.452721 24.558413 0
47.910435 43.602230 26.504101 0
7.794614 35.656498 22.580622 0
51.523396 34.815914 25.004219 0
48.499458 38.399021 24.965876 0
4.187545 34.141300 25.412807 0
14.761598 33.998249 24.158089 0
8.369188 32.482441 26.617083 0
13.212632 30.380713 24.920240 0
44.250607 28.524147 26.483921 0
5.976240 27.354183 22.826345 0
57.286049 24.555407 23.301750 0
51.250618 16.634293 23.745417 0
3.139221 11.409371 18.503513 0
45.416183 6.031280 26.825779 0
62.822941 3.126585 25.395134 0
48.073982 -6.561752 23.072359 0
3.058785 -7.257764 23.479025 0
3.205346 -10.416850 22.870060 0
46.151562 -19.416021 23.652493 0
68.407890 -13.349335 24.321051 0
41.233074 -17.793566 19.240812 0
40.809975 -15.088349 23.574797 0
67.546997 -18.487570 21.617643 0
66.928940 -23.260670 20.739550 0
43.607796 -20.743992 23.157524 0
49.179031 -28.335354 22.120281 0
45.358524 -29.735699 20.057978 0
52.371674 -27.178318 23.275904 0
55.069199 -25.835835 20.664015 0
5.950156 -38.442524 23.543955 0
67.380112 -38.078762 21.525513 0
62.777641 -42.861309 21.878431 0
63.062237 -52.842373 19.502897 0
57.259754 -50.280533 19.762142 0
40.175781 -53.820618 23.902767 0
18.676510 -54.205898 24.498463 0
61.346951 -57.026524 20.276443 0
57.816204 -54.962818 19.589432 0
48.667274 -56.001183 18.605495 0
5.182129 -57.685028 22.080088 0
8.921104 -57.550583 20.525856 0
11.369883 -54.830837 21.573212 0
44.484444 -56.611061 20.999107 0
52.346504 -55.606747 19.305260 0
50.260666 -56.898746 22.288059 0
42.814007 -59.877487 22.360832 0
49.970459 -65.808319 19.275221 0
46.435337 -65.275055 21.013382 0
55.659622 -67.798065 22.798683 0
9.329053 -74.761368 23.179853 0
33.843647 -79.577263 19.689850 0
4.678645 -84.487694 20.287718 0
10.494425 -95.620117 23.777502 0
36.823673 -90.171410 20.070662 0
13.462364 -97.697449 21.033546 0
16.254389 -99.072609 21.249784 0
12.297851 67.386459 27.685583 0
5.793742 49.000710 27.255903 0
12.702546 49.673935 27.495939 0
35.483849 50.766392 25.773413 0
32.484947 45.007866 24.619205 0
44.425270 47.943001 26.649204 0
29.134573 45.193043 25.242556 0
39.968330 40.653358 22.613396 0
38.075062 42.739506 26.469694 0
36.081371 39.822433 23.891596 0
40.012592 45.393543 23.870283 0
39.106308 38.327660 24.300871 0
46.781780 31.964781 25.387308 0
58.212509 29.182648 26.328457 0
55.885605 32.220001 25.629946 0
6.647153 22.081829 25.622898 0
4.905265 16.961987 22.993389 0
62.744366 19.681999 26.069334 0
57.453686 13.226423 29.068171 0
56.231133 10.770739 23.904543 0
57.473030 6.814654 23.274511 0
2.986267 1.037971 22.884964 0
65.153625 -2.963716 23.045399 0
65.030983 0.406536 27.831072 0
65.211082 -5.976143 24.366783 0
3.420551 -13.638535 22.070187 0
59.937527 -9.831078 26.783802 0
65.490891 -12.460000 24.383959 0
4.227043 -19.406185 23.001369 0
60.518150 -16.969889 23.923235 0
37.997421 -16.195074 24.374605 0
37.278389 -19.590635 21.871471 0
66.234169 -16.569712 28.214680 0
39.522953 -22.547825 23.819471 0
34.020954 -25.349476 24.519400 0
58.807041 -25.994505 20.687971 0
63.140453 -26.827011 23.512743 0
56.860817 -26.954254 25.203947 0
38.122955 -29.179226 23.938318 0
62.621838 -32.337475 22.827629 0
67.330902 -41.641869 22.776375 0
66.380920 -38.879559 25.932749 0
66.534492 -35.930313 25.093403 0
6.504519 -41.411190 24.292870 0
50.258347 -48.680897 21.411320 0
58.618294 -46.796337 22.966354 0
7.112371 -50.285358 21.897123 0
62.019196 -51.240547 23.533562 0
9.500389 -49.561913 24.291843 0
53.996925 -52.341213 21.288170 0
56.118362 -57.550915 20.073660 0
59.322159 -59.758102 22.728121 0
44.277164 -55.790424 24.343016 0
53.641720 -57.633060 22.422232 0
48.236706 -56.350288 25.118973 0
49.207119 -60.997272 23.283054 0
52.940624 -61.646835 21.984287 0
48.175323 -68.765572 25.132736 0
8.784801 -71.678795 20.437540 0
6.698243 -72.178680 24.350060 0
51.523365 -72.086861 22.929028 0
5.651133 -74.881454 23.897612 0
40.288445 -78.356659 22.103153 0
32.812511 -74.706619 21.667953 0
32.624264 -78.448433 24.152212 0
37.044903 -77.279594 24.565252 0
49.869995 -76.072357 22.465586 0
33.808094 -82.217621 22.152281 0
40.035275 -81.342339 23.638971 0
35.385620 -83.688034 25.152819 0
46.561981 -77.735252 22.083965 0
38.335453 -86.513710 22.457378 0
13.677406 -95.646210 24.394156 0
23.834789 -97.109894 20.469715 0
21.519722 63.646854 28.124584 0
10.188076 61.153938 26.870296 0
8.074012 62.779430 28.145056 0
10.027272 58.448509 25.716217 0
9.860476 53.504757 28.707870 0
26.470226 53.677517 24.443176 0
31.118734 51.623116 25.901068 0
28.881935 55.864040 24.834370 0
31.249443 56.012733 27.221746 0
40.386951 53.943817 28.371674 0
42.046108 51.335258 27.392637 0
44.728073 39.803349 24.828548 0
10.855894 38.165668 25.349388 0
7.475724 39.306175 26.268143 0
34.522827 35.372543 24.354595 0
50.729980 36.630848 28.219612 0
3.668417 26.815050 26.130651 0
53.911621 23.835930 26.461624 0
57.020699 22.951309 26.918079 0
54.377369 9.726800 28.228872 0
50.868912 7.805567 26.210272 0
59.962532 8.226587 25.530220 0
55.835060 5.655798 27.393639 0
48.702290 2.334805 25.153460 0
52.311066 3.520058 25.788181 0
59.323170 -11.687029 23.934546 0
4.201845 -23.282763 23.891260 0
4.913146 -30.506662 26.050657 0
60.994225 -36.024189 22.382399 0
5.721153 -33.694950 27.332220 0
58.296680 -42.550480 24.328146 0
54.935181 -42.197159 24.728458 0
4.980631 -44.831390 27.964275 0
5.233210 -46.065166 23.806503 0
65.893250 -44.745476 23.684998 0
54.947346 -45.159740 23.012922 0
51.764572 -43.349926 23.691856 0
61.580967 -44.375515 24.507290 0
5.560710 -55.454777 26.702925 0
38.215775 -55.611397 26.483501 0
15.257285 -53.451775 25.331278 0
3.979032 -61.335522 23.244349 0
7.709743 -60.508263 23.872334 0
61.257790 -56.794365 23.534746 0
15.237416 -64.892723 20.503429 0
