#!ascii version written be Caret
6110 12216
9.299295 -43.443539 -35.510490 0
9.369358 -39.679668 -36.510403 0
9.333197 -50.107265 -33.657047 0
6.218016 -66.024048 -30.707167 0
7.765053 -67.499603 -28.583578 0
2.208019 -73.512749 -15.146120 0
-13.574665 -49.653397 41.387020 0
-18.222385 -39.567890 47.614605 0
-21.500937 -28.182100 52.815041 0
-26.814550 -19.411074 50.280685 0
-25.889351 10.564705 45.329029 0
-25.298382 18.575090 41.849354 0
-24.884712 30.958656 35.825489 0
-24.201351 36.952972 29.510168 0
-24.157804 39.028900 28.377012 0
-21.832275 52.444496 13.194137 0
-21.059029 57.821220 3.878390 0
-21.638138 59.889503 -14.576297 0
-22.167152 44.419922 -35.213371 0
-20.246126 44.449574 -35.753384 0
-17.505527 42.990158 -35.768414 0
-2.283464 20.417343 -45.999588 0
-3.411504 17.705374 -49.638882 0
2.110925 11.973460 -54.074661 0
8.532064 -30.880938 -38.991226 0
8.218402 -35.140594 -37.698750 0
9.198993 -53.855904 -32.718258 0
7.947725 -63.736118 -30.855085 0
3.304298 -73.594719 -21.197474 0
2.328709 -74.078735 -18.640440 0
1.180529 -73.397888 -11.454843 0
0.147911 -73.264442 -8.341300 0
-1.287730 -73.037582 -4.680296 0
-2.978328 -61.916546 15.881967 0
-6.841027 -52.720528 29.068636 0
-9.949817 -51.787651 34.812080 0
-13.843361 -47.151955 43.816544 0
-15.904508 -45.784142 45.036037 0
-24.614168 -24.093260 52.144371 0
-26.186359 -21.638361 50.687263 0
-27.725105 -13.546451 49.804260 0
-27.706089 -6.817924 48.666679 0
-27.583633 -4.224241 48.332668 0
-26.569401 4.372670 47.292156 0
-24.968876 34.965622 34.491226 0
-22.828215 49.301174 19.335476 0
-21.496990 55.355442 9.390866 0
-20.869959 61.442650 -8.894895 0
-24.028337 54.079006 -28.307730 0
-22.878531 51.089806 -33.449570 0
-21.325647 48.875065 -35.077320 0
-10.910959 31.729162 -34.187630 0
-8.359139 28.382496 -33.420132 0
-2.953101 20.302160 -48.474720 0
-2.967709 15.992558 -50.984676 0
-0.284848 14.353422 -53.652847 0
3.327479 9.552176 -53.151592 0
5.670259 8.057186 -52.751541 0
9.217537 -5.883734 -44.426575 0
10.065290 -9.700831 -43.101322 0
11.345059 -16.172388 -41.905907 0
11.327909 -46.012939 -34.328350 0
7.831872 -61.044712 -31.626711 0
5.172479 -72.337929 -22.341440 0
4.332595 -72.613762 -18.400141 0
0.411265 -71.683617 -5.122575 0
-1.672561 -72.283020 -2.797831 0
-2.478784 -67.861931 5.682431 0
-2.246196 -66.324104 8.071534 0
-2.009344 -62.979954 13.082463 0
-9.916531 -50.598183 37.102184 0
-17.834446 -42.335903 46.603931 0
-20.017279 -30.559420 52.230549 0
-27.387199 -16.926466 51.228149 0
-27.647797 -14.579691 51.161709 0
-27.762789 -11.360542 49.388401 0
-27.717552 -8.871191 50.237106 0
-27.182884 -0.075804 48.822311 0
-26.143749 7.786446 46.179852 0
-25.509935 16.584600 43.881733 0
-24.982826 28.099689 37.561451 0
-24.773146 38.169476 31.491838 0
-24.507294 41.790264 28.548788 0
-23.304386 47.042828 22.142197 0
-23.692820 45.552979 24.073666 0
-22.270378 51.142643 16.413677 0
-21.730797 54.836254 11.943306 0
-20.686237 61.440552 -1.000149 0
-21.074196 62.119022 -12.219497 0
-22.020418 59.986958 -17.734798 0
-22.729000 59.184464 -21.249445 0
-23.311754 56.697392 -23.419071 0
-23.610233 56.454304 -25.368395 0
-23.876839 54.688110 -30.115538 0
-23.532991 53.138474 -32.042648 0
-21.537548 46.364525 -35.481651 0
-15.266977 39.929573 -35.483532 0
-0.470763 20.245867 -40.619167 0
-1.166353 20.517530 -43.315590 0
-1.738272 16.441269 -52.971169 0
10.506206 -21.393330 -41.098888 0
10.513941 -25.574057 -40.275642 0
8.505001 -57.542019 -32.117702 0
8.073112 -65.664871 -29.978193 0
6.568378 -71.161194 -24.391157 0
1.797048 -71.939316 -8.643275 0
-1.256742 -70.810379 -0.916369 0
-1.838469 -64.517349 10.552446 0
-4.962738 -55.438515 23.481024 0
-25.599749 -21.149645 52.662781 0
-27.379084 -11.366075 52.256142 0
-27.578266 -4.650416 50.071175 0
-27.122503 -2.044554 50.827026 0
-26.958166 2.011304 48.229347 0
-25.423260 14.158407 45.987675 0
-25.236776 21.343418 43.198570 0
-25.147823 23.267597 40.977982 0
-25.146845 26.066586 39.741486 0
-24.042860 43.910336 25.948530 0
-23.025053 52.308189 17.913298 0
-21.183531 58.281044 6.556925 0
-20.913298 59.525105 3.663447 0
-20.620655 62.533592 -4.586976 0
-21.414566 61.127987 -15.197263 0
-23.736973 57.011395 -27.402590 0
-20.800121 51.254059 -34.969692 0
-18.718813 45.882885 -35.919102 0
-15.588033 36.925087 -34.924473 0
-13.458264 35.888447 -34.946285 0
-2.207057 23.315826 -33.697029 0
-1.795583 22.570480 -47.371365 0
-2.934002 20.254480 -50.598320 0
-2.674067 18.607092 -51.888031 0
11.143154 -12.557454 -42.457882 0
11.989630 -41.620228 -35.508953 0
11.439608 -49.214157 -33.290249 0
10.005924 -62.242607 -30.253393 0
3.544564 -71.496857 -11.517488 0
-1.434030 -68.965202 2.616362 0
-1.359487 -61.147667 14.539249 0
-2.576146 -59.838669 17.424097 0
-3.478080 -57.842396 20.047787 0
-4.339709 -56.595387 21.878574 0
-11.748933 -48.133347 42.250580 0
-16.353722 -43.689610 46.282383 0
-16.848269 -37.553146 48.975861 0
-17.438190 -35.490219 49.981991 0
-26.661682 -18.166121 52.675728 0
-26.636929 2.336608 50.134281 0
-25.305080 10.372973 48.186440 0
-25.361000 18.938738 44.462479 0
-22.421598 53.289997 15.428317 0
-20.800501 60.838856 1.880296 0
-22.213493 61.866085 -19.226910 0
-23.261335 58.866379 -24.275032 0
-19.995575 47.187088 -35.766834 0
-12.119191 33.603653 -34.611820 0
-8.315050 31.032276 -34.028763 0
-0.775637 19.736364 -38.185028 0
-0.495999 22.730446 -44.692970 0
1.257629 14.858703 -55.029182 0
7.341876 1.116064 -48.037148 0
9.171003 -1.911507 -46.305874 0
11.847529 -19.454649 -41.442684 0
12.651893 -22.818455 -40.812492 0
10.636233 -28.764212 -39.518936 0
10.263982 -37.103062 -37.221828 0
9.345465 -68.062614 -26.030029 0
8.125541 -69.855469 -24.896275 0
8.026434 -70.440826 -22.109324 0
6.264215 -71.597137 -20.087656 0
3.136018 -70.260643 -6.763004 0
1.387960 -69.787422 -2.564568 0
-0.271723 -66.842819 5.116288 0
-4.370413 -53.852257 24.207478 0
-7.463181 -50.268734 34.526962 0
-15.584476 -41.300606 47.316734 0
-14.831544 -38.863174 48.338699 0
-23.731182 -23.284918 53.953457 0
-27.211208 -14.879892 52.815582 0
-27.323904 -5.759906 51.696999 0
-24.965263 41.219345 30.736809 0
-24.736576 45.161789 28.225447 0
-24.371624 47.627682 25.420240 0
-23.899174 49.515484 22.508600 0
-23.590858 51.324005 20.187399 0
-22.402372 55.437531 13.846949 0
-21.829557 56.649998 11.090578 0
-21.798622 59.020088 9.057365 0
-21.313345 61.487347 5.013886 0
-20.599979 63.340763 -8.377314 0
-21.587046 62.286312 -16.255505 0
-21.312773 63.483345 -14.586851 0
-23.626165 57.175770 -30.002728 0
-23.166225 55.723446 -32.104038 0
-22.356010 53.629887 -33.748146 0
-2.227946 22.450354 -49.965858 0
-1.822970 21.524176 -52.293243 0
-1.509508 19.078270 -53.520454 0
0.073491 17.548822 -54.718575 0
4.112792 10.295771 -54.011280 0
6.446415 6.128432 -51.400730 0
8.781624 2.449630 -48.873341 0
10.827574 -32.292831 -38.504539 0
11.520142 -35.151485 -37.570766 0
12.218105 -38.309795 -36.499088 0
12.003631 -51.984104 -31.930626 0
10.979871 -55.209877 -31.747942 0
9.865249 -59.857292 -31.161476 0
9.823723 -64.742844 -29.039740 0
4.478714 -71.826584 -15.154569 0
0.131978 -69.260559 0.231422 0
0.234161 -62.825539 11.163593 0
-0.122086 -59.208256 15.866192 0
-1.978521 -58.281689 17.958372 0
-1.637818 -56.743694 19.019188 0
-3.245629 -55.890697 21.026522 0
-3.745695 -54.729321 22.426989 0
-8.912691 -48.913120 38.915405 0
-8.147779 -49.565128 36.906734 0
-13.946803 -45.281368 45.399353 0
-14.217516 -43.341000 46.425991 0
-16.514458 -33.673412 50.990765 0
-19.521730 -28.042915 54.018188 0
-21.674793 -25.375227 54.456940 0
-27.443419 -8.397734 52.208275 0
-26.857758 0.673946 51.394726 0
-25.793711 7.302994 48.554783 0
-25.420238 17.245567 45.672138 0
-25.331110 25.169405 42.862732 0
-25.254168 29.531233 39.040554 0
-25.248594 32.676250 37.840740 0
-23.197136 54.914780 16.528793 0
-20.808847 64.370453 -10.514075 0
-22.876547 61.711319 -22.538437 0
-17.946114 49.087036 -35.637089 0
-10.111356 34.573807 -34.951283 0
1.109166 22.682451 -41.572372 0
5.233263 11.388253 -55.042671 0
11.668987 -7.445555 -43.776520 0
13.083111 -13.460111 -42.379055 0
13.233877 -48.622890 -32.530880 0
11.051701 -57.910610 -31.079979 0
10.992115 -65.702431 -26.634817 0
6.503397 -70.949753 -17.229197 0
3.567435 -68.675552 -2.930054 0
1.737071 -67.651741 1.794334 0
-0.342010 -65.015999 8.187813 0
-4.936553 -52.690403 26.494453 0
-5.882511 -50.625137 31.646818 0
-9.384244 -47.447796 41.339317 0
-10.770464 -45.738384 43.897301 0
-11.980511 -44.005787 45.567474 0
-14.854384 -35.924702 49.754559 0
-25.352240 27.472326 41.051968 0
-23.984566 53.856358 19.557243 0
-22.423023 57.732288 12.302777 0
-21.954126 61.420105 7.856369 0
-20.929916 62.776115 1.599038 0
-20.802324 63.679142 -1.137797 0
-20.970222 65.405602 -3.166656 0
-20.565765 64.304886 -5.870122 0
-21.247078 64.886253 -13.267126 0
-21.849516 64.684502 -16.686977 0
-22.428106 63.710838 -20.026558 0
-23.397011 60.435570 -25.858433 0
-23.501026 59.716808 -28.729490 0
-22.975336 58.613754 -31.484098 0
-20.825237 53.938313 -34.757088 0
-18.971701 52.344437 -35.369595 0
-6.045481 28.313053 -33.309875 0
-4.438279 25.627092 -33.042381 0
-0.162524 24.722548 -46.578487 0
-1.247669 24.344893 -48.859493 0
3.334404 14.082061 -55.689522 0
8.258328 5.350822 -51.057220 0
14.405212 -18.624849 -41.684864 0
13.059637 -26.506252 -39.924347 0
13.051707 -30.023275 -38.894897 0
13.683043 -33.281288 -37.717072 0
9.828217 -68.769753 -23.647814 0
7.667861 -70.651505 -19.636040 0
6.201189 -70.204063 -13.597453 0
5.554114 -69.570915 -9.800434 0
5.441994 -68.599983 -5.900857 0
-6.360760 -48.233788 36.930862 0
-17.942942 -31.185863 52.475079 0
-25.318426 -18.285946 54.327530 0
-26.361746 -13.190739 54.227119 0
-26.598852 -7.482082 53.946766 0
-25.967094 5.263941 49.855927 0
-24.926466 19.403336 47.379974 0
-25.207922 41.216511 32.621765 0
-25.078691 43.810822 30.677362 0
-24.784721 50.957623 25.035650 0
-24.329277 51.992386 22.076283 0
-23.939341 56.361435 17.667082 0
-20.844933 65.753860 -7.585690 0
-21.708906 56.703018 -33.602814 0
-17.282314 45.812393 -35.894756 0
-0.903336 24.545654 -51.169941 0
-0.152129 20.643085 -54.347965 0
2.134341 16.757633 -55.838600 0
13.074825 -10.387714 -42.992199 0
11.822722 -60.266895 -29.743612 0
11.916925 -62.625553 -28.360886 0
-2.113656 -54.508842 21.448935 0
-24.171553 -20.574642 54.631088 0
-26.293943 -15.998624 54.082008 0
-26.331429 -10.501983 54.432301 0
-26.720518 -0.062592 52.271282 0
-26.127510 1.968717 52.464993 0
-24.607826 12.851565 49.153008 0
-25.263105 23.059858 45.261974 0
-25.394484 31.221209 40.207371 0
-25.322817 35.072037 38.046276 0
-25.313120 37.236191 36.593964 0
-23.360325 57.874931 15.043540 0
-21.113342 66.155716 -10.990160 0
-22.845821 64.944450 -22.048191 0
-23.174284 63.392296 -24.478590 0
-22.998262 61.639317 -30.413172 0
-21.941023 60.225361 -32.643364 0
-15.169178 45.052547 -35.720074 0
-14.571739 42.222427 -35.769951 0
-11.972774 38.329010 -35.495937 0
12.144853 -4.532622 -45.031536 0
13.934520 -7.271809 -43.989895 0
14.277101 -15.555090 -42.170792 0
15.032956 -38.628536 -35.523449 0
13.418840 -43.804188 -34.269199 0
14.178725 -45.851185 -33.087891 0
12.903317 -58.164059 -29.701130 0
11.889111 -66.553947 -23.171726 0
10.304755 -68.659843 -21.486183 0
9.206924 -69.416962 -19.035686 0
8.199997 -69.596008 -16.329950 0
1.599205 -61.355957 12.828388 0
-4.730872 -51.251736 28.745522 0
-12.418751 -40.896168 47.165241 0
-22.100893 -22.035759 55.339409 0
-26.345097 -3.623990 53.633556 0
-25.984838 -0.597090 53.522594 0
-25.523645 4.478371 51.907219 0
-24.677584 15.434211 48.647606 0
-25.396740 29.033607 42.255226 0
-25.218292 38.659958 34.329533 0
-25.282484 44.067223 33.289967 0
-22.836323 59.562943 12.231123 0
-22.713898 61.479736 10.409690 0
-22.332491 63.700436 7.115974 0
-21.674143 63.526524 4.734045 0
-21.637709 65.299324 2.065197 0
-21.309124 67.626701 -5.771681 0
-21.364588 67.751434 -9.554946 0
-21.745148 67.426773 -13.836619 0
-22.422695 65.692413 -19.343300 0
-22.187504 66.896950 -17.251122 0
-19.311090 55.264076 -34.905132 0
-13.154409 41.681084 -35.700336 0
0.974876 21.952049 -38.106762 0
1.634363 24.880461 -43.996624 0
-0.492687 23.144985 -53.217434 0
11.071056 0.381952 -47.562267 0
12.442777 -1.822983 -46.403435 0
12.560259 -56.289566 -30.602118 0
13.227521 -54.108532 -30.527712 0
12.627498 -63.707630 -26.648027 0
11.429286 -67.594650 -19.405434 0
8.764109 -68.720284 -14.541958 0
8.083447 -68.519806 -12.211507 0
1.957416 -65.212639 6.583694 0
-2.740474 -52.704884 24.078468 0
-13.226675 -33.108593 50.700451 0
-17.354738 -28.735937 53.970947 0
-17.705326 -26.089890 55.087322 0
-19.610109 -25.448757 55.286293 0
-20.492254 -23.560080 55.687695 0
-25.050358 -9.012371 55.672718 0
-24.672537 7.840456 51.012936 0
-25.196568 26.671160 45.166504 0
-25.246046 37.368565 39.462204 0
-25.327614 41.586967 34.837021 0
-25.196341 47.019001 31.062199 0
-24.927755 47.364182 28.219896 0
-25.066219 49.481411 28.228945 0
-24.837593 54.153282 22.653900 0
-24.538408 56.023609 19.932961 0
-21.592569 67.452858 -1.972583 0
-23.398329 62.428974 -27.018738 0
-23.371202 62.275387 -28.714252 0
-9.321380 37.381229 -35.451317 0
0.116702 26.403210 -48.824009 0
2.225491 19.606342 -55.603867 0
4.479776 16.807556 -56.421013 0
5.449497 13.732197 -56.261063 0
7.560690 9.603292 -54.546741 0
14.041564 -36.032547 -36.746956 0
14.503930 -41.564167 -34.610611 0
13.857755 -59.395794 -27.799343 0
10.431092 -68.066872 -16.723282 0
7.187865 -68.027336 -7.862624 0
1.827627 -59.469307 15.367887 0
-12.234378 -37.016201 48.802929 0
-15.698418 -32.143864 51.913067 0
-15.386456 -30.231926 52.856636 0
-24.731140 -15.005420 55.175102 0
-24.705494 -11.861849 55.525875 0
-24.820282 2.395961 54.044235 0
-23.940365 10.621168 50.981800 0
-24.996695 23.645285 47.133629 0
-25.296316 33.370743 41.262466 0
-25.298176 39.987595 36.967319 0
-25.196590 53.432117 25.495234 0
-23.728241 61.090214 14.306274 0
-21.831530 69.360947 -11.425048 0
-22.752119 67.768669 -20.403538 0
-22.391682 63.897236 -30.864979 0
-19.976278 58.057011 -34.252323 0
-16.550005 52.961372 -35.189060 0
-15.028928 49.099255 -35.428535 0
-6.915833 33.332401 -34.465599 0
-3.230162 28.729845 -32.847408 0
8.874590 7.436635 -53.098114 0
11.136573 2.184588 -48.762329 0
15.356510 -31.506247 -37.968060 0
14.141348 -55.992840 -29.150578 0
13.632306 -61.846458 -26.534468 0
13.427546 -63.723866 -24.570791 0
10.735418 -67.092667 -13.893757 0
8.053037 -67.952545 -9.942228 0
4.282093 -67.615746 -0.651553 0
4.215988 -66.108757 3.604060 0
-6.938891 -47.263710 39.231743 0
-8.542409 -45.085098 43.147869 0
-9.102810 -42.273273 45.453568 0
-18.167410 -23.280428 55.833118 0
-23.229952 -17.717035 55.342514 0
-25.294970 -7.096014 55.668472 0
-25.280926 -5.219305 55.443977 0
-25.053001 -3.183509 55.426411 0
-24.226166 16.589844 49.775063 0
-25.263903 30.063410 43.904972 0
-24.959967 57.125256 21.514992 0
-24.344906 58.782349 17.877417 0
-22.122772 67.866409 1.029382 0
-21.761543 69.728149 -8.014804 0
-22.332386 68.697853 -16.627485 0
-23.061312 66.560379 -24.167164 0
-23.255451 64.517494 -26.014141 0
-23.038950 65.039833 -28.053276 0
-21.280153 62.798798 -32.780506 0
-20.451849 60.432438 -33.820290 0
-7.659051 35.809784 -35.132420 0
-5.098290 31.073042 -33.559250 0
3.475862 24.810871 -41.744953 0
0.697891 27.048986 -51.187801 0
0.738161 25.318380 -52.914841 0
6.712235 14.957273 -56.730053 0
8.049697 11.991679 -56.057549 0
10.605915 5.456621 -51.656063 0
10.869398 3.718059 -50.074116 0
13.176840 -0.046320 -47.546246 0
15.524355 -12.906622 -42.793701 0
15.407182 -28.230465 -39.144363 0
14.819080 -60.424549 -24.757256 0
12.918084 -66.174713 -19.475819 0
12.549682 -66.101395 -16.200819 0
10.144194 -66.827301 -11.181760 0
8.092802 -66.933716 -5.602914 0
6.340568 -67.314636 -2.781074 0
3.979183 -67.049271 1.433260 0
3.855947 -65.344940 5.762794 0
-6.598570 -45.736343 40.860794 0
-24.235697 -0.904364 55.315842 0
-24.205969 5.946210 53.041851 0
-23.011578 13.466763 51.641243 0
-25.217871 50.622814 31.306498 0
-25.251421 52.078445 28.147364 0
-25.350754 54.629486 27.351570 0
-23.338058 63.478642 11.215062 0
-22.577774 66.108650 5.844960 0
-21.899994 69.724106 -4.637382 0
-22.275206 70.536133 -14.221686 0
-22.664337 70.361313 -17.664938 0
-17.230389 57.105076 -34.642265 0
-17.761385 55.145363 -35.139366 0
-14.988726 51.475140 -35.215412 0
-11.742993 44.050060 -35.393608 0
-8.998313 35.834099 -35.406265 0
3.591617 23.359411 -38.774261 0
1.650645 26.664131 -45.984798 0
10.433539 8.956635 -54.855827 0
13.383610 1.681510 -49.032036 0
14.881146 -9.116205 -43.427509 0
15.462046 -21.508783 -41.123997 0
16.911566 -34.912033 -36.387012 0
15.847211 -43.569645 -33.146496 0
14.074848 -50.720528 -31.016514 0
15.361170 -52.487003 -28.768017 0
15.127903 -56.005753 -27.571539 0
13.981072 -64.197205 -22.358219 0
5.412735 -64.462097 7.075228 0
2.961409 -63.338173 9.847677 0
2.723009 -60.580639 14.094810 0
-2.908006 -51.283161 26.646751 0
-2.611723 -49.909054 29.526447 0
-10.272022 -39.259926 47.401451 0
-15.857140 -27.247694 54.352020 0
-19.972277 -21.462975 55.979816 0
-22.606909 -19.814344 55.506035 0
-23.414789 -6.607022 56.551022 0
-23.394238 -3.431269 56.391045 0
-24.268900 23.006090 49.046883 0
-24.639154 29.330786 46.330322 0
-24.428556 26.428581 47.833118 0
-24.974064 31.903330 44.393478 0
-24.851259 36.236145 42.264389 0
-24.917614 41.113358 39.081738 0
-25.100004 43.537415 36.530609 0
-25.165676 45.957138 34.462959 0
-25.256912 55.893059 24.667974 0
-25.198729 58.237568 23.372000 0
-24.084732 64.272057 14.347540 0
-22.740499 68.193642 4.376480 0
-22.255245 69.684174 -1.411960 0
-22.908743 69.785988 -20.267326 0
-22.986649 69.493034 -22.942410 0
-22.922895 67.984299 -26.327444 0
-12.901417 46.686043 -35.314365 0
-10.979992 41.217556 -35.560780 0
-1.318692 26.395998 -32.729942 0
0.429982 22.879871 -35.180031 0
1.477218 28.156181 -47.759567 0
1.271586 22.814117 -54.487720 0
4.976177 19.549280 -56.145176 0
15.620071 -5.800272 -45.036121 0
15.873172 -24.753897 -40.256306 0
16.530605 -40.901669 -33.984608 0
15.029171 -47.419617 -31.920908 0
15.574142 -49.149796 -30.594234 0
13.755676 -65.139198 -20.694157 0
9.426590 -66.607101 -8.131111 0
5.956040 -66.541771 0.712122 0
5.705347 -65.404831 4.577639 0
-4.601233 -48.353088 34.528084 0
-4.030046 -45.865936 37.751934 0
-6.590282 -43.829033 42.872787 0
-8.955166 -36.396343 48.155823 0
-14.200912 -28.210833 53.342712 0
-23.680292 17.909019 50.640461 0
-23.826668 20.503508 50.131699 0
-24.712164 34.088940 43.918877 0
-25.155111 48.096867 33.615604 0
-24.944824 59.742844 21.123987 0
-24.702236 60.097164 18.823391 0
-24.470736 61.818565 17.360682 0
-23.099771 65.390831 8.763194 0
-22.677427 69.651535 1.578340 0
-22.223431 72.068497 -6.842113 0
-22.142900 71.362755 -10.476940 0
-22.293695 67.195595 -29.248281 0
-21.281754 65.552277 -31.684813 0
-19.738129 61.818520 -33.879036 0
-18.326859 59.685215 -34.307602 0
-13.312309 52.290882 -34.509796 0
4.371510 27.306013 -43.516289 0
1.393544 28.736710 -49.573826 0
2.372296 21.780006 -55.317436 0
7.588787 17.267838 -56.600571 0
11.761932 6.312524 -52.936153 0
13.172671 3.824807 -50.962769 0
15.224950 -1.014145 -47.695419 0
14.569641 -3.322287 -45.984436 0
15.921196 -10.668880 -43.294743 0
17.001688 -15.621673 -42.545124 0
18.434835 -42.448940 -32.388714 0
16.857294 -45.880886 -31.361521 0
15.232500 -57.889736 -26.107817 0
15.034859 -61.692978 -22.239614 0
14.883373 -63.278252 -19.939381 0
14.217346 -64.433197 -17.833586 0
12.730692 -64.965820 -12.455663 0
7.394845 -65.195190 2.929125 0
4.738095 -63.637077 9.425817 0
3.737327 -61.779060 12.604845 0
0.179805 -56.023685 19.162676 0
-0.629707 -53.454010 22.062088 0
-10.706377 -34.304794 49.417358 0
-13.349048 -29.993687 52.162292 0
-22.107288 8.747427 53.298504 0
-24.725706 39.185303 41.159157 0
-25.193047 54.101749 30.140181 0
-25.178284 57.114254 27.490379 0
-25.285864 57.859379 25.266483 0
-22.472385 71.674545 -3.242888 0
-22.428885 72.855507 -12.743646 0
-22.633213 72.884094 -16.473089 0
-22.909214 71.508530 -19.644497 0
-14.764347 56.084702 -34.265774 0
-9.420359 39.627121 -35.460949 0
2.803421 27.597223 -52.706669 0
4.110978 22.635307 -55.198292 0
8.730928 14.737403 -56.790668 0
16.661669 -8.528818 -44.167744 0
17.362471 -30.579863 -38.027126 0
14.214173 -63.884418 -15.002249 0
11.486838 -65.790039 -10.930197 0
11.353449 -65.403152 -9.109649 0
8.050564 -65.796967 -0.338261 0
5.863048 -62.678448 11.180046 0
-6.420450 -42.503387 44.025909 0
-8.147836 -39.133896 46.848583 0
-14.179334 -26.076881 54.046352 0
-23.048853 1.633968 55.524559 0
-23.438890 4.800999 54.390400 0
-23.997402 32.275841 46.293526 0
-23.554190 35.738968 45.119473 0
-24.917919 49.355362 34.741482 0
-24.488327 63.996880 17.123869 0
-23.710428 65.807037 11.302702 0
-23.406260 67.755486 8.484810 0
-23.149822 70.802864 3.535378 0
-22.852253 71.492874 0.075870 0
-22.336485 73.329796 -9.494624 0
-22.933174 71.747910 -21.744453 0
-22.855930 70.215317 -25.035149 0
-22.293455 70.328712 -27.054054 0
-19.836477 63.927044 -33.213314 0
-18.142687 61.852547 -33.944412 0
-12.256996 49.144207 -34.763103 0
-6.837319 38.732845 -34.991703 0
2.930375 28.575274 -46.054848 0
2.625708 29.944714 -48.035061 0
2.282377 29.180538 -51.120918 0
2.558430 24.965223 -54.059784 0
12.996748 6.921789 -53.992523 0
17.687815 -19.204622 -41.800243 0
17.959713 -27.211424 -39.330227 0
18.099110 -38.728897 -34.392403 0
10.936162 -64.846031 -5.814217 0
8.903367 -65.976677 -3.374422 0
2.235626 -57.624638 17.654165 0
-3.887343 -49.295689 31.938898 0
-11.615803 -29.845469 51.266010 0
-15.643966 -24.221052 55.103535 0
-17.990992 -20.414942 55.925934 0
-20.443241 -18.798882 55.627987 0
-22.979742 -15.355247 55.544125 0
-23.033445 -9.569108 56.340904 0
-21.717714 -4.504616 56.968979 0
-20.919626 -1.225661 56.528755 0
-22.684843 16.686808 52.057259 0
-22.790003 22.762671 50.961941 0
-23.186758 25.782246 49.758465 0
-23.131306 29.299355 48.420071 0
-24.432281 44.022430 38.947609 0
-24.516972 46.899639 37.034184 0
-24.955206 60.145103 24.807341 0
-24.897469 61.722309 22.105139 0
-24.843277 61.770416 20.024317 0
-23.399473 70.229843 6.820179 0
-22.475555 72.443336 -23.593538 0
-20.672167 68.068489 -30.866985 0
-15.702244 60.287697 -33.676571 0
-9.932796 46.517780 -34.472492 0
-8.663156 42.557316 -34.932579 0
-5.779730 35.583000 -34.675156 0
-0.619926 29.435484 -31.888836 0
1.464175 24.861605 -33.132046 0
5.158432 24.498049 -39.955818 0
6.845454 21.307848 -55.670902 0
7.372915 19.329027 -56.231430 0
15.962980 1.483704 -50.050526 0
17.756617 -22.286943 -40.994007 0
15.426883 -61.792160 -17.091442 0
9.620980 -65.106041 -1.401496 0
5.147276 -61.056770 14.101683 0
3.809294 -59.611698 15.687472 0
-0.889436 -51.807270 24.491423 0
-4.526307 -44.143761 40.583118 0
-6.132414 -39.663788 45.787067 0
-8.248170 -33.208652 48.911785 0
-10.202441 -31.345009 50.132519 0
-21.013298 -15.808515 55.278904 0
-22.371229 -12.813262 55.665096 0
-22.160736 4.763660 55.010811 0
-21.324390 15.662477 52.913147 0
-22.087000 19.667418 52.013706 0
-23.763721 42.119648 41.347610 0
-24.927280 51.035156 33.960197 0
-24.608730 63.781563 19.728657 0
-24.310778 66.076195 16.874374 0
-24.030489 67.535179 12.809975 0
-22.561007 73.594185 -4.552024 0
-22.365393 74.988747 -10.753582 0
-22.706303 73.350563 -19.998796 0
-21.424110 69.454643 -29.344658 0
-19.513517 66.178200 -32.431702 0
-17.880390 63.813953 -33.380894 0
-10.323850 50.732670 -33.624458 0
-4.025160 33.696102 -33.674370 0
2.903952 23.395948 -35.709881 0
3.757605 30.363674 -46.627789 0
3.213814 30.752117 -49.618248 0
4.650476 25.776106 -54.141106 0
10.488886 13.338020 -56.711624 0
10.557959 11.155454 -56.238712 0
13.587081 8.231889 -55.141750 0
14.626465 4.637222 -52.369446 0
16.053812 -54.945057 -25.474302 0
15.755545 -57.737244 -24.200504 0
15.786133 -58.805645 -21.951183 0
15.863151 -59.716824 -19.598234 0
15.519341 -61.647308 -19.719635 0
10.727392 -64.427406 -2.779271 0
10.518453 -63.678532 0.477786 0
1.153116 -54.140366 21.183470 0
-0.773232 -50.593658 26.791035 0
-4.200758 -42.210876 42.421253 0
-12.997021 -24.205208 53.887501 0
-16.163380 -21.771908 55.678196 0
-20.519083 12.336743 53.245121 0
-24.115971 37.936237 43.324551 0
-23.968697 39.877277 42.598484 0
-24.759129 52.972881 33.284126 0
-22.877111 73.432915 -1.389169 0
-22.354242 74.940918 -7.105921 0
-22.520157 74.495209 -13.687757 0
-22.067701 74.606911 -21.490829 0
-21.882885 72.683945 -25.591152 0
-19.414331 70.761093 -29.601078 0
-18.880186 68.493591 -31.373518 0
-13.233788 58.385265 -33.152504 0
-13.195694 54.544521 -34.084885 0
-5.689425 41.636227 -34.288212 0
-2.216184 31.792336 -32.546497 0
1.173819 27.246311 -31.747561 0
6.269616 26.067261 -40.920853 0
4.506383 29.488064 -45.045086 0
4.372591 30.494678 -51.357571 0
6.778409 23.996494 -54.855553 0
12.327987 9.882401 -55.942253 0
15.060020 6.349160 -54.031460 0
16.994747 -4.029566 -46.494526 0
18.648357 -7.559171 -45.346226 0
19.968897 -36.622990 -34.986271 0
17.452785 -48.509220 -29.075277 0
17.418917 -50.364815 -27.329063 0
16.902149 -52.365883 -25.447662 0
12.797719 -63.800629 -8.556014 0
13.840730 -63.152851 -10.399354 0
8.232144 -64.090965 5.817055 0
7.629005 -63.457642 8.684606 0
6.750885 -61.024010 14.146619 0
-0.232708 -49.778149 28.328760 0
-5.787423 -41.238407 44.606331 0
-12.258741 -27.279564 52.541416 0
-20.743223 -7.146945 56.789295 0
-22.420258 33.157543 47.415749 0
-24.054756 50.442074 36.393219 0
-24.653675 55.583504 31.970547 0
-24.798857 57.079475 29.957375 0
-24.523706 59.650864 28.143246 0
-24.436819 63.394413 23.005234 0
-24.179705 68.118050 15.421704 0
-23.738974 69.692612 9.722212 0
-23.208302 72.945045 2.057847 0
-22.576738 75.332863 -3.264604 0
-22.444702 75.244240 -15.562498 0
-22.295389 75.159340 -18.249594 0
-20.855536 74.689476 -24.100397 0
-20.927717 72.518097 -27.158978 0
-21.190775 71.003365 -28.508007 0
-17.698866 66.548882 -32.403179 0
-16.365793 63.847424 -33.105572 0
-11.494841 55.198498 -33.077587 0
-7.025406 44.985973 -33.793964 0
-4.037200 36.429516 -34.100903 0
10.149828 19.157309 -55.790985 0
10.892902 16.070133 -56.451199 0
16.474960 3.365410 -51.884708 0
18.475735 -11.494174 -43.852932 0
19.614861 -24.256287 -40.400501 0
18.968102 -32.155018 -37.216930 0
19.160360 -45.548656 -29.725534 0
16.244354 -56.263081 -22.473166 0
15.278852 -61.969036 -14.571831 0
14.700301 -62.274788 -12.196932 0
13.044777 -62.537178 -5.959764 0
12.297952 -62.581528 -2.965150 0
9.292500 -64.178978 3.331395 0
6.075683 -59.272758 16.508348 0
4.808350 -57.998814 17.799091 0
4.492981 -56.490765 19.397923 0
2.601329 -55.489925 20.062109 0
1.285973 -52.492214 23.362486 0
-1.976569 -48.355656 32.109215 0
-1.883522 -46.591179 34.663990 0
-2.108335 -42.596153 39.392754 0
-6.288555 -37.258076 46.989883 0
-6.294552 -34.682976 47.865128 0
-21.366442 2.213590 55.941246 0
-20.825693 18.302687 53.000217 0
-22.671556 39.442123 44.141403 0
-21.656147 36.666443 46.194695 0
-24.089283 65.815567 20.593891 0
-23.833836 68.331123 17.935873 0
-23.431948 72.229744 5.470354 0
-22.917360 74.915291 0.507676 0
-21.933413 76.901215 -9.518502 0
-22.153019 76.334908 -12.822880 0
-9.540458 53.230572 -32.568890 0
-7.666508 48.277317 -33.032722 0
-4.460815 38.960052 -34.374451 0
5.606313 23.304895 -35.897728 0
5.235507 31.184393 -45.801804 0
4.408631 31.636843 -47.649956 0
5.234255 32.297176 -48.929611 0
5.248150 28.376450 -53.132763 0
7.189011 26.635048 -54.013348 0
8.915407 22.082602 -55.249928 0
12.650491 11.735995 -56.531326 0
17.145769 5.087386 -53.336235 0
17.612387 -1.620901 -48.384575 0
19.868332 -29.471287 -38.330544 0
21.100054 -39.772087 -32.951035 0
19.499231 -47.726135 -26.480869 0
10.614591 -62.922352 4.244777 0
-0.978174 -44.345623 36.250904 0
-21.080948 -9.918453 56.241962 0
-19.638231 -4.263927 57.028973 0
-19.713886 17.295691 53.324135 0
-21.407736 24.983143 51.077415 0
-23.115902 45.549797 40.268860 0
-23.305832 48.602272 38.495098 0
-23.955175 55.231419 33.983051 0
-23.579517 58.208771 31.725842 0
-23.893675 70.127853 13.831451 0
-23.405157 72.535751 9.188023 0
-23.247082 74.030365 4.436746 0
-21.995209 76.963348 -5.353286 0
-21.751421 76.907761 -15.564827 0
-21.115032 76.436981 -20.128853 0
-19.419165 73.390381 -27.287954 0
-16.122810 66.059967 -32.275257 0
-14.626051 63.600311 -32.452293 0
4.484457 24.280870 -33.059242 0
6.347257 30.093399 -43.803696 0
16.285654 7.549924 -54.839500 0
19.249243 -4.610533 -47.173752 0
19.548138 -14.484525 -43.250134 0
19.850357 -34.055534 -36.272858 0
20.544210 -42.718861 -31.247183 0
16.308313 -56.509239 -19.057623 0
14.415553 -61.195957 -8.313213 0
13.025210 -60.709431 -0.299720 0
11.811386 -62.104240 2.024971 0
2.924175 -53.600910 22.356316 0
1.153792 -51.237598 25.313183 0
-3.682379 -39.764225 44.165417 0
-13.749442 -21.839996 54.821220 0
-19.045635 -15.064303 54.406551 0
-19.363997 -13.289996 54.428856 0
-20.639969 -12.473776 55.226959 0
-20.447405 4.947921 55.102989 0
-19.387970 6.957247 54.422043 0
-18.941662 9.817432 53.777447 0
-19.255163 14.954583 53.414501 0
-20.741161 22.655130 51.945671 0
-23.720037 52.816902 35.793678 0
-24.287409 62.265553 25.679575 0
-23.918688 70.119720 11.536660 0
-22.571869 75.966652 2.624474 0
-22.089293 76.852417 -1.264222 0
-21.508961 76.889946 -17.738451 0
-20.273907 76.536400 -21.933981 0
-17.387882 72.041458 -28.986094 0
-16.795395 69.258751 -30.745396 0
-12.953983 61.517769 -32.173374 0
-7.609537 51.631664 -31.933884 0
5.904326 30.140491 -52.484924 0
6.621406 31.363483 -51.699669 0
12.606527 17.418503 -55.697083 0
12.745289 13.923072 -56.507454 0
14.583268 9.816731 -55.918182 0
18.141712 2.356586 -51.608734 0
21.227468 -12.910924 -43.976181 0
19.432877 -16.992239 -42.570618 0
20.173361 -21.418499 -41.305077 0
22.437115 -36.888138 -34.421066 0
18.118469 -50.213131 -25.513376 0
16.835730 -53.753838 -22.474142 0
16.036716 -59.187557 -17.165169 0
15.828176 -59.751469 -13.975796 0
9.810320 -62.762833 7.487319 0
7.866354 -62.550442 10.986600 0
8.520376 -61.044712 13.076644 0
-4.391532 -35.816673 46.798203 0
-9.465920 -27.559944 50.770443 0
-11.227035 -25.217607 52.523613 0
-14.996170 -19.453192 55.370693 0
-17.431969 -18.356443 55.458881 0
-18.151209 -16.579140 54.754757 0
-19.886618 -11.162070 55.389790 0
-19.457172 20.115692 52.720947 0
-21.397915 27.473131 50.148392 0
-23.630899 60.448887 29.704685 0
-23.126581 65.270058 24.160723 0
-22.814991 75.060707 5.808757 0
-20.042259 78.129585 -16.645517 0
-19.241611 77.634048 -19.947096 0
-18.904070 76.651741 -22.798399 0
-15.902213 67.404449 -31.681463 0
-14.737986 66.515526 -31.480923 0
-12.761959 64.948166 -31.018198 0
-11.008355 59.239750 -31.746134 0
-2.794811 40.213184 -33.597176 0
-2.484478 37.775345 -33.581970 0
3.942500 26.645016 -30.524267 0
7.061729 24.080038 -38.125137 0
6.579564 32.586147 -50.093838 0
7.980151 29.540716 -52.839436 0
9.924910 24.416801 -54.434547 0
11.298522 21.228876 -54.981007 0
14.688902 15.235806 -55.549801 0
14.764709 12.175651 -56.157951 0
18.867100 0.002390 -50.106087 0
19.832737 -2.474741 -48.783268 0
20.952530 -6.946206 -46.467190 0
20.484417 -27.017591 -39.373318 0
22.230209 -34.208500 -35.933018 0
15.363669 -60.231087 -10.737463 0
14.156193 -59.917389 -4.645736 0
12.596828 -60.559738 3.819108 0
9.470456 -62.029491 10.220160 0
8.040601 -59.457939 15.828050 0
3.776409 -51.740311 25.038969 0
0.741866 -48.844677 29.815037 0
-3.788276 -37.773308 45.508007 0
-5.653596 -31.951021 48.251526 0
-7.738215 -30.313982 49.376446 0
-19.616848 1.898027 56.031239 0
-17.214066 13.335958 53.173264 0
-18.910275 22.634411 52.138142 0
-22.112864 30.960455 48.644512 0
-20.593222 33.834805 47.920662 0
-23.490364 62.414124 27.606318 0
-23.119682 67.604820 21.111774 0
-22.428518 75.263847 7.604298 0
-21.553492 77.993790 -7.726059 0
-21.185253 77.945976 -12.931792 0
-18.849932 75.304474 -25.299829 0
-17.683456 74.034492 -27.338133 0
-8.565557 55.451191 -31.373377 0
-5.566544 49.590115 -31.523079 0
-4.681121 44.108654 -33.221790 0
-3.261386 42.371292 -33.310482 0
-1.401517 34.988926 -32.373760 0
8.984449 26.044573 -39.173096 0
7.747923 28.396236 -41.481209 0
6.741560 32.646664 -46.014523 0
7.183253 33.470390 -47.833683 0
9.219715 27.269833 -53.784050 0
16.845602 9.600603 -55.408306 0
18.996294 6.842108 -54.037186 0
19.245285 3.987481 -52.860016 0
21.471430 -9.995286 -45.085114 0
20.938299 -19.162716 -42.067173 0
21.418694 -31.532946 -37.321266 0
21.487461 -43.970451 -29.577950 0
21.210825 -45.462582 -27.719168 0
18.205004 -50.491699 -23.052786 0
16.226187 -57.533875 -16.005199 0
11.365695 -61.766060 6.241962 0
7.484435 -56.642414 19.227415 0
1.966614 -50.147293 27.243998 0
-3.707906 -33.651581 47.124603 0
-18.656225 -8.816916 55.884388 0
-17.962696 17.548075 53.077625 0
-18.836880 25.771444 51.002045 0
-20.366823 30.161673 49.371689 0
-20.403959 39.971611 44.994427 0
-22.007946 42.816349 42.797813 0
-20.884314 45.990784 41.556007 0
-21.835663 51.395451 37.969769 0
-22.803734 54.182590 36.083179 0
-22.744581 56.492344 34.407784 0
-22.116133 61.160145 30.457586 0
-23.420448 70.614410 16.256147 0
-23.329054 72.021660 13.406737 0
-21.749552 77.261162 1.460855 0
-21.087326 78.232071 -3.209909 0
-20.838772 78.724373 -6.062360 0
-20.769478 78.744522 -9.897119 0
-14.141459 68.408783 -30.353914 0
-10.468692 62.387875 -30.497913 0
-9.767716 57.378941 -31.552532 0
-4.590246 46.888741 -32.123928 0
0.400978 32.401154 -30.838579 0
1.711764 29.361206 -30.668941 0
8.540532 32.070282 -51.015247 0
14.401477 19.012941 -54.440331 0
21.502903 -1.377738 -49.917633 0
21.567221 -4.542205 -48.037556 0
21.938925 -15.950253 -43.131886 0
23.650265 -21.747465 -40.966431 0
22.660948 -28.588495 -38.572365 0
19.591753 -48.342751 -23.687519 0
16.679852 -54.095856 -19.792242 0
15.860025 -58.699860 -11.213060 0
14.426482 -58.034698 -1.620439 0
4.973763 -54.712257 21.618729 0
-2.507621 -40.590782 42.312504 0
-4.984440 -29.142309 48.263195 0
-10.635795 -22.337593 53.087746 0
-15.052807 -16.948357 54.686340 0
-17.768660 -11.027133 54.225933 0
-17.676794 -6.010604 56.639507 0
-17.733517 0.207234 56.249920 0
-16.933920 6.805715 54.101410 0
-19.387579 36.320995 46.923244 0
-21.822521 48.313793 39.904987 0
-21.445322 58.327141 33.379147 0
-22.483187 69.864288 19.113035 0
-22.512995 74.587151 9.869967 0
-21.330931 76.957542 4.570508 0
-20.413172 78.336647 -0.087345 0
-19.666613 79.086220 -13.208096 0
-17.015024 75.245003 -26.047760 0
-15.469673 73.643944 -27.456867 0
-15.131100 71.170670 -29.253994 0
-10.936863 65.640732 -29.728687 0
-8.086981 59.682980 -29.914495 0
7.522527 31.946548 -44.006229 0
16.585587 12.192954 -55.529690 0
20.391918 1.495550 -51.488667 0
23.410978 -7.275954 -46.686256 0
22.812378 -18.683641 -42.309383 0
21.881145 -23.884525 -40.558624 0
22.256987 -25.480999 -39.932404 0
23.829824 -31.164719 -37.221222 0
24.254570 -33.204403 -36.167572 0
24.536781 -34.885273 -35.047249 0
23.935610 -38.169048 -33.112896 0
22.753008 -41.829117 -30.698376 0
17.300167 -52.090065 -20.232885 0
16.691168 -53.772274 -17.356821 0
10.462557 -60.399086 11.873501 0
-2.398036 -35.682270 45.710594 0
-3.132037 -31.256132 47.262199 0
-7.180736 -28.232237 49.447102 0
-9.854005 -24.729666 51.741428 0
-17.099216 -14.414329 53.256496 0
-17.836226 3.943341 55.135220 0
-16.320759 17.132641 52.676033 0
-18.572323 32.961834 48.394039 0
-22.211252 63.922131 27.410852 0
-22.889935 71.124077 17.294342 0
-22.102896 72.319504 15.921667 0
-22.652597 73.526855 12.338867 0
-19.737432 79.562836 -7.404027 0
-17.783018 79.079025 -15.493690 0
-17.736866 78.410393 -18.187954 0
-16.798977 77.656029 -20.849194 0
-17.161512 76.528976 -23.841022 0
-11.987257 67.909378 -29.505802 0
-6.590421 54.094872 -30.585260 0
-2.436320 44.592041 -32.204090 0
-1.366175 37.240662 -32.980907 0
8.563823 30.994429 -42.254719 0
9.284038 34.044136 -45.755058 0
10.657413 28.731251 -52.930805 0
12.668963 22.368593 -54.310738 0
18.620770 10.170279 -54.695210 0
24.249292 -39.808998 -31.519709 0
23.346060 -43.471115 -28.128267 0
22.476414 -45.122753 -25.256014 0
20.979376 -46.765450 -23.782907 0
20.018990 -47.880028 -21.242224 0
16.401815 -55.288399 -14.539468 0
16.205694 -57.393993 -13.976223 0
16.127895 -56.837429 -11.651833 0
15.443797 -58.070766 -8.390731 0
13.865871 -58.269829 2.744670 0
11.356848 -60.734661 8.985957 0
8.171842 -58.301018 17.558172 0
0.131431 -47.337608 32.245831 0
-8.045765 -24.146992 50.728008 0
-11.667467 -19.517813 54.536694 0
-12.947787 -17.845287 54.982246 0
-16.248564 -7.663668 55.686726 0
-17.328156 -2.814597 56.754410 0
-16.534840 9.912346 53.398430 0
-16.900080 21.358309 51.961727 0
-17.964359 29.581760 49.651730 0
-20.068119 43.492558 43.266701 0
-21.134365 66.095390 25.366640 0
-21.206781 68.407150 22.126656 0
-21.515619 75.139664 11.150002 0
-19.672951 78.197189 2.846828 0
-19.301071 79.366959 -3.878888 0
-19.335787 79.698502 -10.162444 0
-13.073895 70.225037 -29.030998 0
-6.783491 56.847897 -29.917532 0
-4.835356 52.145996 -30.249512 0
-2.959163 49.713219 -30.299910 0
-0.545211 39.131504 -32.417416 0
8.709900 33.614445 -48.578766 0
10.424062 30.632233 -51.806740 0
11.248261 26.502155 -53.668449 0
20.151314 8.578502 -53.930859 0
21.140202 4.182099 -52.658215 0
23.451000 -3.774337 -48.626057 0
24.218668 -10.349535 -45.060810 0
24.500248 -36.542210 -34.077370 0
25.046907 -41.051445 -29.613255 0
18.352512 -49.961090 -20.121876 0
12.283834 -60.465446 6.611008 0
10.486448 -58.696953 14.579040 0
4.937810 -53.242840 23.584467 0
1.330674 -45.489746 33.338413 0
-6.394714 -26.183418 49.236568 0
-12.070962 -21.136368 54.296406 0
-16.653952 -12.402996 52.679859 0
-16.340225 -9.366121 54.522228 0
-14.991191 -10.495116 52.572666 0
-14.632008 11.403660 52.259712 0
-21.204975 54.838467 36.238022 0
-20.385424 63.807041 28.442343 0
-21.323606 74.192528 13.521445 0
-21.117924 76.190636 8.385240 0
-18.000710 80.024071 -7.828399 0
-17.996254 79.809044 -12.039331 0
-15.163194 76.678001 -23.162752 0
-15.588387 75.588791 -25.360922 0
-13.178437 72.518867 -27.557751 0
-11.109393 70.268074 -27.890734 0
-9.376097 65.105507 -28.955017 0
-1.069147 41.924606 -32.502769 0
10.423462 30.114058 -40.117538 0
8.945481 33.147015 -43.684765 0
10.125057 33.222485 -49.316650 0
10.784579 32.092285 -50.476624 0
13.117837 24.745798 -53.477551 0
14.711710 22.246092 -53.483219 0
22.461748 1.241908 -51.242222 0
23.940458 -13.301699 -43.885670 0
24.344723 -17.196398 -42.585541 0
24.180828 -25.759613 -39.538918 0
25.482920 -28.376890 -38.011173 0
26.129910 -32.235065 -35.855701 0
24.493725 -43.261967 -25.823530 0
9.083706 -58.169914 16.977684 0
7.269279 -54.605770 21.964209 0
-1.245234 -37.624096 43.351006 0
-1.336124 -33.261703 45.866039 0
-15.271896 -1.342219 56.308956 0
-16.266247 2.275129 55.326283 0
-15.028438 18.778704 51.841778 0
-19.606298 49.125626 39.866146 0
-20.585480 71.219955 18.674250 0
-20.188412 73.400787 15.512044 0
-19.641497 75.645668 11.133567 0
-16.101267 79.497131 -14.057903 0
-14.861573 78.311279 -17.715870 0
-13.710333 74.957634 -25.321180 0
-9.852358 68.019699 -28.132481 0
-8.026731 63.024757 -28.867855 0
-4.973740 55.528179 -29.269497 0
0.092103 37.100716 -31.530136 0
3.050263 30.533226 -28.943888 0
12.689017 29.305027 -51.642773 0
13.019553 27.452045 -52.544075 0
17.936802 13.056421 -54.538021 0
21.715021 7.044886 -52.790035 0
23.191608 3.769557 -51.694492 0
23.594879 -1.175543 -49.916992 0
26.451162 -35.674225 -33.300488 0
25.702793 -38.049416 -32.137970 0
25.324957 -42.085255 -27.564684 0
17.497835 -51.302517 -17.546587 0
16.863140 -52.888096 -14.263271 0
15.347391 -56.679054 -5.672743 0
12.078386 -58.827240 11.114255 0
6.152255 -53.060627 23.883892 0
4.513959 -49.145695 28.240324 0
-1.418888 -40.086655 41.442852 0
-0.935814 -35.342491 44.836796 0
-15.396851 -15.475073 53.519245 0
-15.236062 -13.353160 51.493450 0
-15.482559 -4.542209 56.561054 0
-14.537861 4.162027 53.953922 0
-14.809781 7.823119 52.951683 0
-14.683031 15.226441 52.025066 0
-15.705863 24.613771 50.609730 0
-16.944853 27.166187 50.342934 0
-16.451633 31.872032 48.347248 0
-16.698450 35.361172 46.939373 0
-18.122301 38.266155 46.007988 0
-18.338421 42.507870 43.879040 0
-18.301626 40.361286 45.060303 0
-18.299650 45.836182 41.807606 0
-19.106035 52.429375 37.668846 0
-19.449656 77.220039 6.711592 0
-17.961281 79.144897 -0.402753 0
-17.211294 79.892166 -4.608198 0
-16.631355 80.077728 -10.633000 0
-14.308695 77.407127 -20.691408 0
-10.898786 72.104309 -26.652903 0
-5.198099 58.677002 -28.593857 0
-1.577506 47.197884 -30.822464 0
1.252863 41.725758 -31.358608 0
0.991235 35.795258 -30.012135 0
6.838644 22.911598 -33.275051 0
10.489421 28.032478 -39.228535 0
10.365565 32.421711 -41.372536 0
11.050607 34.182018 -42.521935 0
11.649217 34.634232 -44.449978 0
12.932057 30.844324 -50.081432 0
16.940704 15.972636 -54.139549 0
20.653925 10.568167 -53.204174 0
24.513477 0.970505 -50.231194 0
25.003853 -5.108260 -47.641201 0
26.303951 -41.253258 -25.514109 0
16.471806 -54.157864 -9.903462 0
13.193259 -58.579033 7.056074 0
10.133350 -56.917454 17.549076 0
-2.101157 -29.008030 46.667992 0
-14.185753 -6.045314 55.753796 0
-13.406857 13.614261 51.315544 0
-18.933271 67.620316 23.946550 0
-18.626923 69.940224 20.788645 0
-11.960906 73.835930 -25.778383 0
-8.622243 70.695297 -25.869322 0
-7.882239 66.745979 -27.478632 0
-5.425768 62.085724 -27.847677 0
-3.643698 54.142384 -28.978243 0
-2.140842 52.715740 -28.868895 0
-0.047969 44.235683 -31.454332 0
1.329167 38.899265 -30.674589 0
6.417303 24.107470 -30.668737 0
11.290335 33.762005 -47.075535 0
12.072677 32.599190 -48.786900 0
25.472500 -2.133614 -48.566158 0
26.106890 -24.572517 -39.228828 0
26.981255 -38.125141 -30.187155 0
26.605442 -40.263885 -28.086432 0
22.515671 -45.216541 -21.907021 0
19.146450 -48.672039 -18.010004 0
12.407738 -57.314018 13.395032 0
9.496794 -54.312851 21.452604 0
8.334256 -52.806622 23.863071 0
6.536012 -51.187389 25.854038 0
2.597900 -47.455830 30.788389 0
0.238349 -34.455864 43.885918 0
-1.027671 -31.146669 46.064499 0
-12.321465 -16.323145 54.481472 0
-14.402907 -14.247122 51.803818 0
-12.885239 -3.260090 55.938934 0
-14.751475 0.891243 55.457111 0
-15.463621 28.805382 49.139122 0
-19.841244 56.693859 35.018520 0
-19.933838 60.330101 31.920712 0
-20.528118 62.064159 30.441818 0
-19.087494 71.430779 18.880447 0
-17.766386 72.579781 16.717068 0
-18.865200 74.254448 14.375313 0
-18.148031 78.357178 3.518109 0
-15.892244 79.656631 -2.607841 0
-15.697791 80.061691 -7.927380 0
-14.926785 79.778580 -11.636789 0
-14.050362 79.020325 -14.587135 0
-13.158081 76.344833 -22.637108 0
-11.558786 75.155418 -23.481886 0
-10.253016 73.250908 -25.033026 0
-6.616475 64.477203 -27.654264 0
-2.697839 56.593056 -27.980637 0
1.968607 33.630650 -28.866396 0
8.452803 22.350649 -35.187847 0
9.957648 23.922127 -37.177334 0
15.456249 27.827888 -50.240429 0
15.952650 24.346983 -51.938011 0
16.700972 20.854670 -52.649487 0
18.026028 17.969406 -52.588860 0
19.691689 13.491132 -53.069729 0
25.859638 -7.071589 -46.285805 0
25.775974 -8.994488 -45.312218 0
26.815697 -11.334792 -43.595291 0
26.252720 -14.953330 -42.702866 0
26.198803 -18.528175 -41.395973 0
26.894848 -21.197046 -39.950966 0
26.998344 -29.427910 -36.927738 0
27.861912 -33.107197 -33.877708 0
24.714708 -43.014545 -23.097599 0
17.871109 -50.449951 -15.439091 0
17.509600 -51.316368 -12.497087 0
15.287009 -55.393642 -2.578833 0
13.149981 -57.990864 9.621487 0
12.164511 -55.891685 16.509142 0
0.147655 -41.886810 36.853706 0
-0.360957 -39.314247 40.421833 0
0.108394 -40.328770 38.334576 0
-8.871023 -19.859922 53.287445 0
-12.311378 -15.190978 53.260616 0
-12.672673 -13.205195 50.128826 0
-13.768284 -12.105077 50.412548 0
-14.549222 -11.359723 51.338139 0
-14.464341 -9.289475 53.456264 0
-14.111461 -8.029376 54.464542 0
-14.128213 21.296101 50.657116 0
-16.272720 40.153358 44.543804 0
-17.305540 50.498264 38.496445 0
-19.440723 54.894890 36.329399 0
-19.390064 65.514687 26.696133 0
-18.270571 75.147598 12.692767 0
-17.788372 76.647011 8.815795 0
-17.072800 77.627975 5.984063 0
-16.193066 78.589935 2.511438 0
-14.982924 79.865074 -5.270927 0
-11.999481 77.885124 -16.229038 0
-11.587706 76.592278 -20.033920 0
-6.850953 68.324089 -26.309036 0
-3.138665 60.204971 -27.316347 0
0.035933 50.587528 -28.942539 0
0.733067 46.165009 -30.516914 0
14.545264 30.306791 -49.093281 0
14.534812 26.226763 -52.216454 0
23.595678 6.140213 -51.470158 0
27.835489 -8.037169 -44.327194 0
28.060703 -26.548893 -37.111393 0
28.015741 -30.176085 -35.643230 0
21.441408 -46.148712 -19.312670 0
16.051521 -53.867119 -5.871170 0
14.895496 -55.796238 0.853468 0
14.727780 -55.842014 3.499362 0
13.966275 -56.216637 10.466883 0
10.958308 -54.968628 19.270811 0
-10.259439 -17.027498 54.542072 0
-13.417329 -14.735092 52.374420 0
-12.080982 -10.306157 50.384338 0
-12.952631 -0.991078 55.685909 0
-13.366879 18.085487 50.819374 0
-17.105085 48.089119 40.050835 0
-17.550114 55.516579 35.189896 0
-18.802954 58.365414 33.441944 0
-18.949757 62.244576 30.161358 0
-17.248854 74.249107 14.021144 0
-16.885267 75.519691 11.268526 0
-13.047500 79.397446 -7.413978 0
-14.077570 79.771461 -9.663786 0
-12.825758 79.051262 -11.996428 0
-9.398397 74.049820 -23.020363 0
2.426265 44.730404 -30.488121 0
12.157019 25.916773 -37.206413 0
12.042992 31.482876 -39.226681 0
12.065419 33.233414 -40.125542 0
13.080276 34.925556 -41.739109 0
13.785616 34.643246 -43.327068 0
14.334900 31.893101 -47.019135 0
18.974871 15.608871 -52.823383 0
21.924675 12.036894 -51.460190 0
23.041315 9.320668 -51.201550 0
25.003107 3.604541 -50.135494 0
26.717247 -5.244802 -46.623711 0
28.197378 -15.964382 -41.041107 0
28.141869 -23.164953 -38.442837 0
19.089155 -48.623421 -14.664439 0
18.058987 -50.153244 -9.925290 0
14.463754 -56.098938 6.317869 0
13.479273 -55.733578 13.952445 0
7.871785 -49.614681 27.114962 0
4.983362 -46.166584 30.625526 0
0.597081 -37.102650 41.028130 0
0.584491 -32.087074 44.297337 0
-3.680015 -27.043074 47.502743 0
-7.989244 -21.440302 51.865299 0
-9.093300 -18.238636 54.154198 0
-12.362079 -8.946850 52.375587 0
-14.070737 26.421242 49.244041 0
-14.212694 31.815796 47.031189 0
-16.654646 43.656071 42.778240 0
-17.437555 53.549236 36.551952 0
-17.424454 63.651604 28.286476 0
-16.814816 71.304482 18.508844 0
-15.224521 76.470901 8.362111 0
-15.111272 77.783150 4.934041 0
-15.228297 79.136070 -0.202101 0
-5.149163 65.926300 -26.503542 0
-0.153609 54.694977 -27.640856 0
0.296614 48.004898 -29.860479 0
3.527020 43.076492 -30.318075 0
10.720118 21.830069 -35.568161 0
13.092517 33.883850 -45.530331 0
15.783328 29.769737 -48.011265 0
21.075605 14.792186 -51.152248 0
24.688351 6.761917 -50.111008 0
26.126873 0.966186 -48.627213 0
27.809153 -38.726376 -26.664169 0
20.415257 -47.060558 -16.786800 0
17.050875 -51.432640 -7.309258 0
15.808229 -53.201740 -2.909819 0
15.573666 -53.372295 0.182530 0
15.668272 -53.140110 3.828777 0
10.619819 -52.311771 23.275036 0
9.657791 -50.852295 25.287737 0
3.530010 -44.181084 32.500351 0
1.609051 -42.633636 34.680859 0
0.834957 -35.462193 42.195400 0
-4.784955 -23.349009 48.679050 0
-10.232657 -15.551562 54.005798 0
-13.252657 6.243177 52.298710 0
-12.775694 8.901058 51.156914 0
-12.272480 15.809887 50.050995 0
-13.488691 28.632481 47.920826 0
-15.589412 37.893471 45.514141 0
-15.248162 45.896130 40.472851 0
-15.532270 52.417206 36.227211 0
-17.285824 60.436661 31.176598 0
-17.986950 65.883911 26.196651 0
-16.685730 68.467560 22.520611 0
-14.932869 75.171989 11.059789 0
-13.400325 78.236069 2.121324 0
-13.513868 79.301155 -3.237707 0
-11.235535 78.529114 -10.126156 0
-11.053533 78.121246 -13.146567 0
-8.169455 74.823387 -20.707653 0
-6.957387 72.377510 -23.430332 0
-5.788989 69.592972 -25.092524 0
-2.595282 63.837154 -26.283012 0
2.051462 47.926521 -29.436256 0
3.025450 40.899532 -29.936262 0
2.416439 38.498844 -28.390814 0
4.746730 28.330336 -28.374313 0
6.568107 26.072226 -27.631355 0
13.397968 29.287920 -37.321156 0
13.795148 32.160686 -37.998146 0
13.427585 34.098724 -39.659767 0
17.156485 25.856022 -50.002987 0
17.938364 22.494047 -51.164413 0
26.941360 -3.230042 -47.150871 0
28.123653 -13.127698 -42.145092 0
28.462057 -18.300709 -39.895584 0
29.555826 -19.896215 -38.160553 0
29.711533 -22.920198 -36.873669 0
28.849794 -31.034920 -34.172550 0
28.291218 -35.048275 -31.399641 0
24.108788 -43.267574 -19.169071 0
16.538200 -51.313778 -4.282641 0
